# .PCD v0.7 - Point Cloud Data file format
VERSION 0.7
FIELDS x y z rgb
SIZE 4 4 4 4
TYPE F F F U
COUNT 1 1 1 1
WIDTH 1091
HEIGHT 1
VIEWPOINT 0 0 0 1 0 0 0
POINTS 1091
DATA ascii
0.2710678 0.41924778 0.15644196 4283849818
0.27163351 0.41840023 0.1566076 4283718234
0.26412335 0.42663264 0.15763356 4283653205
0.26497054 0.42536336 0.15788162 4283718743
0.26554322 0.42330348 0.15745701 4283784025
0.26688257 0.42260018 0.15770729 4283849818
0.26823327 0.42068028 0.15736713 4283652439
0.26051831 0.42992654 0.1578922 4285166445
0.26150754 0.42784184 0.15788679 4284376930
0.26249805 0.42575511 0.15788171 4283981658
0.25338036 0.4371087 0.15799254 4286085234
0.2540808 0.43545383 0.15790431 4286216820
0.25559059 0.43386179 0.15815209 4286283127
0.25676852 0.43256527 0.15820496 4286085749
0.25832519 0.43110496 0.1585643 4286085492
0.25917009 0.42863053 0.1582236 4285757296
0.25040114 0.43815482 0.1585806 4285757298
0.25188565 0.43663311 0.1585772 4285822833
0.25337115 0.43511099 0.1585734 4286151284
0.25450209 0.4334166 0.15890455 4285953905
0.25520417 0.43175808 0.15881748 4286151284
0.24659072 0.44166154 0.15950917 4281149476
0.24743786 0.44039229 0.15975723 4281872431
0.24828504 0.43912303 0.16000529 4283057739
0.2496915 0.43781197 0.15924971 4285427824
0.25038975 0.43615696 0.15916289 4285691252
0.24531689 0.44216514 0.16001235 4280886819
0.24571574 0.43987644 0.15984195 4281018661
0.32391137 0.36777267 0.15329984 4283588189
0.32476124 0.36649933 0.1535487 4283259738
0.32543272 0.36434418 0.15312012 4283391581
0.32628396 0.36306882 0.15336938 4283522654
0.32713518 0.36179349 0.15361863 4283325018
0.31873363 0.37200668 0.15398116 4283784542
0.31958348 0.37073341 0.15423001 4283456347
0.32142794 0.36937931 0.15389113 4283456347
0.32209414 0.36722872 0.1534631 4283456860
0.31617782 0.3730171 0.15499075 4283456606
0.31738335 0.37191558 0.15490426 4283522397
0.31813765 0.37020591 0.1548157 4283588190
0.31369439 0.37462375 0.15558204 4283325016
0.31454426 0.37335041 0.15583089 4283390810
0.31064439 0.37707928 0.15600742 4283390552
0.31149429 0.37580594 0.15625629 4283522136
0.31214464 0.3736656 0.15583202 4283390550
0.3127121 0.3728154 0.15599819 4283193171
0.30702782 0.3803837 0.1562669 4283325018
0.30816096 0.37868592 0.1565987 4283193432
0.30880603 0.3765502 0.15617499 4283456345
0.30220571 0.38478959 0.15661287 4283193942
0.30333886 0.38309181 0.15694468 4283127893
0.30436623 0.38096571 0.15694062 4283062102
0.2922121 0.39623907 0.155884 4283784538
0.29306197 0.39496574 0.15613286 4283587159
0.29419512 0.39326802 0.15646467 4283586902
0.29568392 0.39174211 0.15646112 4283718232
0.29642096 0.39004818 0.15637381 4283783768
0.29771072 0.38854718 0.15670604 4283587416
0.29915574 0.38724512 0.15703826 4283193173
0.29978645 0.38512298 0.15661523 4282996309
0.28370729 0.40616262 0.15515159 4283455060
0.28484043 0.4044649 0.15548339 4283323732
0.28597358 0.40276715 0.15581521 4283389525
0.28710672 0.4010694 0.15614702 4283586644
0.28823987 0.39937159 0.15647884 4283587155
0.28937298 0.39767388 0.15681064 4283324242
0.29086182 0.39614797 0.15680709 4283455573
0.29159501 0.39445755 0.15672006 4283718488
0.29272908 0.39275846 0.15705213 4283652694
0.29357961 0.39148411 0.15730119 4283652694
0.29495668 0.38953587 0.15696175 4283718232
0.2958079 0.38826051 0.15721101 4283784025
0.27782443 0.41286254 0.15474746 4283455576
0.27867424 0.41158924 0.15499631 4283521367
0.27952415 0.41031593 0.15524517 4283455318
0.28037399 0.40904266 0.15549402 4283389525
0.2813831 0.40693715 0.15548882 4283520855
0.28239349 0.40482962 0.15548396 4283520598
0.28352845 0.40312919 0.1558163 4283520083
0.28466338 0.40142873 0.15614864 4283520083
0.28579834 0.39972827 0.15648098 4283454545
0.27264664 0.41709659 0.15542877 4283323991
0.27349651 0.41582331 0.15567763 4283193175
0.27492279 0.41422838 0.15530999 4283390043
0.27542236 0.41304618 0.15550312 4283587163
0.27678499 0.41111511 0.15516227 4283587161
0.2776362 0.40983978 0.15541151 4283652952
0.26980755 0.41853139 0.15635541 4283718232
0.27129635 0.41700551 0.15635186 4283455319
0.27278519 0.41547963 0.15634833 4283455575
0.2733739 0.41340241 0.15592422 4283389782
0.2739414 0.41255221 0.15609038 4283521368
0.26640189 0.42081511 0.15711614 4283849818
0.26725176 0.41954181 0.15736499 4283587159
0.26867473 0.41794887 0.15699826 4283587160
0.26994607 0.41691443 0.15727496 4283258196
0.26306862 0.42369509 0.15745857 4283784021
0.26391846 0.42242178 0.15770742 4283652439
0.26491445 0.42032698 0.157704 4283718232
0.25647441 0.43005133 0.15772513 4286151027
0.2574645 0.42796257 0.15772171 4286151027
0.25895372 0.42643601 0.1577183 4285691246
0.26058519 0.42530176 0.15804987 4285034343
0.26115447 0.42324021 0.15762845 4284770403
0.25136903 0.43488166 0.15798815 4285823091
0.2522189 0.43360832 0.15823701 4285888627
0.25277489 0.43156004 0.1578159 4285953907
0.25576311 0.42970765 0.15839583 4286150257
0.25675261 0.42761859 0.15839294 4286216052
0.25745967 0.42595267 0.15830731 4286085234
0.24824665 0.43674091 0.15883183 4283913048
0.2494168 0.4346444 0.1584941 4285559666
0.25150758 0.43326464 0.15890771 4285757298
0.25206244 0.43121579 0.15848766 4285757298
0.24632983 0.43749869 0.15958904 4281544494
0.24441297 0.43825647 0.16034622 4280756258
0.3200601 0.36770982 0.15312614 4283522140
0.32091266 0.36643246 0.15337579 4283390812
0.32236913 0.36480799 0.15300715 4283259483
0.32282868 0.36326322 0.15322843 4283259229
0.32446817 0.36251932 0.15353511 4283325020
0.32542711 0.3599301 0.15319282 4283652443
0.31870553 0.36761841 0.15405218 4283522397
0.31946388 0.36590263 0.15396476 4283258714
0.32022461 0.36418438 0.15387739 4283127131
0.32172051 0.36265117 0.15387385 4283390302
0.31500483 0.37033516 0.15473212 4283588189
0.31566411 0.36818483 0.15430836 4283653982
0.31651801 0.36690545 0.15455841 4283456860
0.31308189 0.37109539 0.15549172 4283258964
0.31281143 0.36962652 0.15523943 4283258965
0.31402272 0.36851978 0.15515253 4283587933
0.30945382 0.3744103 0.15575203 4283521881
0.31059054 0.37270716 0.1560849 4283587673
0.31144309 0.37142977 0.15633453 4283324758
0.31145471 0.369535 0.15616694 4283258968
0.30490053 0.37840444 0.15618232 4283062359
0.30575308 0.37712708 0.15643197 4283128152
0.30688986 0.37542388 0.15676484 4283324761
0.30782089 0.37285519 0.15642765 4283587162
0.30867481 0.3715758 0.15667771 4283587161
0.30952874 0.37029639 0.15692775 4283521369
0.29686439 0.38690987 0.15603364 4283784025
0.29771695 0.38563249 0.15628329 4283258964
0.2988537 0.38392934 0.15661615 4282996307
0.29995361 0.38239864 0.15619417 4283062357
0.30080685 0.38112026 0.15644401 4283062100
0.30194449 0.37941575 0.15677714 4283193428
0.3033331 0.37745479 0.15643834 4283193173
0.30447167 0.37574893 0.15677172 4283258967
0.29316369 0.38962662 0.15671358 4283586646
0.29401624 0.38834924 0.15696323 4283587159
0.29548562 0.38661909 0.15709956 4283652697
0.29667076 0.38531473 0.15715267 4283193684
0.29738739 0.3834134 0.1572077 4283061842
0.29813063 0.38170904 0.15712291 4283193171
0.29962656 0.38017586 0.15711935 4283127378
0.3007651 0.37847 0.15745273 4283324757
0.28640953 0.39762527 0.15605851 4283389263
0.28726211 0.39634785 0.15630816 4283258194
0.28839886 0.39464471 0.15664102 4283390552
0.28953558 0.39294156 0.15697388 4283652954
0.29067233 0.39123839 0.15730675 4283455575
0.29129303 0.38912126 0.15688708 4283455575
0.29214692 0.38784185 0.15713713 4283455575
0.29328549 0.38613597 0.15747052 4283258454
0.29442406 0.38443014 0.15780392 4283258967
0.27496308 0.41124019 0.15491122 4283652956
0.27581567 0.4099628 0.15516087 4283587161
0.27718148 0.40802696 0.15482095 4283652696
0.27803475 0.40674856 0.1550708 4283389524
0.27917239 0.40504408 0.15540393 4283652442
0.28079212 0.40392071 0.1557363 4283586650
0.2816447 0.40264335 0.15598595 4283520855
0.28278145 0.40094021 0.15631881 4283520855
0.2837964 0.39882416 0.15631634 4283257681
0.28481278 0.39670613 0.15631431 4283258194
0.28595132 0.39500025 0.15664771 4283258194
0.28708988 0.39329436 0.15698111 4283719517
0.28822845 0.39158851 0.15731451 4283652954
0.28908238 0.3903091 0.15756455 4283521368
0.28965163 0.38945618 0.15773125 4283389782
0.27097824 0.4143827 0.15550795 4283258196
0.27211499 0.41267955 0.15584083 4283455574
0.27360854 0.41114879 0.15583727 4283521110
0.27449319 0.40965986 0.15575096 4283586647
0.27569804 0.40753001 0.15541172 4283586648
0.27655196 0.40625063 0.15566176 4283323987
0.27769053 0.40454474 0.15599516 4283652439
0.26841429 0.41539633 0.15652075 4283455574
0.26977444 0.41346446 0.15618198 4283323989
0.27098033 0.41209373 0.15648687 4283389781
0.27225393 0.41105741 0.1567633 4283521366
0.27256075 0.40939817 0.15625943 4283586646
0.26535457 0.41785964 0.15694749 4283587159
0.26607129 0.4161832 0.15686224 4283389780
0.2670736 0.41407889 0.15686066 4283521109
0.25845519 0.42466193 0.15713169 4285887855
0.25902358 0.42381036 0.15729812 4285625710
0.25973526 0.42213857 0.15721315 4285165159
0.26122952 0.42060682 0.1572098 4284046938
0.26236716 0.41890231 0.15754293 4283718487
0.2638624 0.41737011 0.15753917 4283653205
0.26457831 0.41569322 0.15745477 4283653205
0.25333354 0.42950764 0.15739554 4286019700
0.25447029 0.4278045 0.15772842 4285953907
0.25532287 0.42652711 0.15797806 4286019443
0.25650549 0.42441633 0.15764114 4286019442
0.25745398 0.42299524 0.15791887 4285953906
0.25864071 0.42168927 0.15797198 4285756784
0.26001784 0.41969371 0.15788575 4284639074
0.26115638 0.41798785 0.15821913 4283915866
0.24963285 0.43222439 0.15807548 4285758068
0.25048545 0.43094701 0.15832514 4285757296
0.25183111 0.42902789 0.15798771 4285757297
0.25313655 0.42751092 0.15831985 4285691505
0.25460929 0.4261823 0.15865089 4285823091
0.2551727 0.42412063 0.15823336 4285888884
0.25631127 0.42241478 0.15856676 4285823091
0.25716519 0.4211354 0.1588168 4285757298
0.24657314 0.43468776 0.15850222 4282531135
0.24748117 0.43281221 0.15774751 4284835945
0.24833508 0.43153283 0.15799755 4285626742
0.24436599 0.43587375 0.15917861 4280756258
0.24491316 0.43382743 0.15876192 4281216301
0.24676643 0.43246689 0.15842141 4282992971
0.24762037 0.43118751 0.15867145 4285231986
0.24285716 0.43539849 0.15977205 4280493858
0.24134579 0.4349238 0.16036688 4280428065
0.32310796 0.36083391 0.15277521 4283193434
0.32387355 0.35910946 0.15268853 4283521628
0.32464004 0.35738379 0.15260214 4283586650
0.31996572 0.36270502 0.15362428 4283192925
0.32053587 0.36185071 0.15379123 4283390304
0.32160223 0.35995311 0.15339604 4283521632
0.32279271 0.35864294 0.15344928 4283521372
0.32318816 0.35684848 0.15319656 4283784029
0.31746647 0.36432189 0.15421933 4283193688
0.31813297 0.36216074 0.1537977 4283127642
0.31851619 0.36042401 0.1532931 4283193435
0.31908816 0.35956708 0.15346059 4283193181
0.31254083 0.36815575 0.15498847 4283390552
0.31375402 0.36704728 0.15490143 4283653726
0.31403974 0.36482602 0.15431432 4283456604
0.31523082 0.36351502 0.15436777 4283456859
0.31648642 0.36249673 0.15464453 4283193686
0.31182495 0.36780989 0.15566345 4283390554
0.31239516 0.36695561 0.15583041 4283587679
0.31295544 0.36436054 0.15507664 4283259226
0.31371477 0.36263761 0.15499301 4283259995
0.30997935 0.36727372 0.15584008 4283390299
0.31083596 0.36599025 0.15609093 4283390555
0.31149361 0.36383113 0.1556737 4283521885
0.30211937 0.37667778 0.15635979 4283127378
0.30276155 0.37453619 0.15594155 4283127380
0.30430779 0.37308547 0.15630157 4283324760
0.30550858 0.37171939 0.15660679 4283456347
0.30664977 0.37000945 0.15694094 4283456348
0.30730006 0.36785698 0.15652438 4283719519
0.30821565 0.36691847 0.15674584 4283456347
0.29783672 0.38025746 0.15687492 4283127378
0.2984069 0.37940317 0.15704189 4283127378
0.29904321 0.3772659 0.15662472 4283127378
0.30059144 0.37581369 0.15698436 4283193171
0.30163848 0.37393004 0.15659285 4283127380
0.30243546 0.37230176 0.15687327 4283259223
0.30432892 0.37076724 0.15728648 4283456347
0.30547106 0.36905596 0.15762094 4283390302
0.30612028 0.36690167 0.15720613 4283719265
0.30669227 0.36604467 0.15737362 4283587679
0.29505238 0.38230148 0.15738651 4283127381
0.29568338 0.38016883 0.15696988 4283258965
0.29671463 0.37803018 0.15697116 4283258965
0.29746112 0.37631807 0.15688902 4283258966
0.2983191 0.37503257 0.15714025 4283258966
0.27929327 0.40236676 0.15498337 4283586650
0.28014857 0.40108532 0.15523382 4283586650
0.28075597 0.39898235 0.15481378 4283586650
0.28214416 0.39809534 0.15581818 4283586649
0.28328454 0.39638674 0.15615211 4283389525
0.2844249 0.39467818 0.15648603 4283258194
0.28556529 0.39296964 0.15681995 4283521625
0.28670561 0.39126104 0.15715387 4283653468
0.28760901 0.38871473 0.15682049 4283652954
0.28922647 0.38759696 0.15715076 4283389782
0.29008242 0.38631451 0.1574014 4283258966
0.29087558 0.38469094 0.15768144 4283258966
0.29184976 0.38247487 0.15732035 4283127381
0.29305518 0.38110447 0.15762529 4283127382
0.29438198 0.37879705 0.15731847 4283193688
0.2735852 0.4080821 0.15508111 4283586646
0.27444047 0.40680069 0.15533155 4283455060
0.27503887 0.40470672 0.15491168 4283389267
0.27589551 0.40342328 0.15516251 4283455060
0.2778075 0.40186647 0.15557763 4283389269
0.27842951 0.39970034 0.15541127 4283520854
0.2795555 0.39805141 0.15549369 4283586905
0.28082213 0.39675117 0.15616283 4283521369
0.28207043 0.39551643 0.15657933 4283587161
0.28282043 0.3937571 0.15674798 4283455573
0.28396264 0.39204583 0.15708244 4283455574
0.28510478 0.39033458 0.1574169 4283653725
0.28612787 0.38820413 0.15741821 4283324760
0.28692135 0.38657895 0.15769903 4282995794
0.28860527 0.38580137 0.15799822 4283193173
0.28974742 0.38409013 0.15833266 4283390552
0.29065779 0.38153106 0.15800273 4283127380
0.29151577 0.3802456 0.15825397 4282930001
0.27072802 0.40952605 0.15601365 4283455575
0.27202719 0.40725118 0.15570436 4283652439
0.27330396 0.40621161 0.1559808 4283455061
0.27348047 0.40387264 0.1555371 4283455061
0.27475825 0.40283236 0.15581337 4283521108
0.27632067 0.40136561 0.15617301 4283652692
0.27720982 0.39883384 0.15583965 4283587155
0.27835378 0.39711988 0.15617463 4283587414
0.27949777 0.39540592 0.15650961 4283652952
0.28035578 0.39412042 0.15676086 4283718745
0.28121373 0.39283493 0.15701209 4283718232
0.28235772 0.39112094 0.15734707 4283652439
0.28350168 0.38940701 0.15768205 4283521366
0.28464565 0.38769302 0.15801702 4283324757
0.28578964 0.38597906 0.158352 4283390550
0.26765859 0.41199723 0.15644175 4283520853
0.26824626 0.40991154 0.15602362 4283389267
0.26938844 0.40820026 0.15635806 4283455317
0.26998064 0.40610781 0.15594128 4283587159
0.26244783 0.41625825 0.15712741 4283718998
0.26302731 0.41417927 0.15671037 4283522389
0.2646434 0.4131079 0.15678896 4283455573
0.26524803 0.41095701 0.15662432 4283521109
0.26661551 0.4090153 0.15628697 4283323987
0.26718751 0.4081583 0.15645446 4283521366
0.25816524 0.41983792 0.15764254 4285429103
0.25845236 0.41819245 0.1571427 4285165931
0.25930899 0.41690895 0.15739354 4284639587
0.26078495 0.41517037 0.15753087 4283784279
0.2623103 0.41383287 0.15738641 4283587159
0.26316693 0.41254938 0.15763725 4283389780
0.2637493 0.41046381 0.15722246 4283389780
0.25217205 0.42598042 0.15765679 4285691505
0.25302732 0.42469898 0.15790723 4285757298
0.25744936 0.41949204 0.15831751 4285494896
0.25773537 0.41784602 0.15781875 4285165931
0.25859198 0.41656256 0.15806958 4284968552
0.25959387 0.41445273 0.15807173 4283915862
0.24889037 0.42947885 0.15758044 4285692276
0.24973392 0.42699298 0.15724774 4285625967
0.25059053 0.42570952 0.15749857 4285559917
0.25115302 0.42364472 0.15708357 4285625710
0.25280145 0.42249632 0.15741314 4285888883
0.25444847 0.42134994 0.15774226 4285954677
0.25530306 0.41884977 0.1574114 4285823091
0.24515894 0.43100613 0.15768006 4282137662
0.24601561 0.42972267 0.15793091 4283257169
0.2481745 0.42913297 0.15825541 4285560947
0.2490169 0.42664656 0.15792377 4285626223
0.24987353 0.42536309 0.1581746 4285691503
0.25043491 0.42329773 0.15776068 4285757298
0.25129291 0.42201227 0.15801191 4285823091
0.24294131 0.43219775 0.15835968 4280624934
0.24364506 0.43052843 0.15827836 4280887851
0.2443497 0.42885771 0.15819727 4281874234
0.23901041 0.4359563 0.15853761 4280757547
0.24000664 0.43304297 0.15971532 4280690467
0.24129474 0.43253374 0.15920651 4280428065
0.23928966 0.43269655 0.16039136 4280690984
0.32284451 0.35491416 0.15261051 4283849822
0.31947407 0.35782623 0.15295675 4283193181
0.32033339 0.35653874 0.15320839 4283193181
0.31509793 0.36081997 0.1538973 4283456858
0.31696296 0.35945082 0.15355463 4283193688
0.31782228 0.3581633 0.15380627 4283325020
0.31437868 0.36047247 0.15457548 4283259995
0.312154 0.36166787 0.15525723 4283456605
0.30839956 0.36420521 0.15608355 4283324761
0.30959409 0.36289048 0.15613709 4283456603
0.30261558 0.36954576 0.15646373 4283259480
0.30376136 0.36782905 0.15679924 4283391067
0.30462071 0.36654156 0.15705086 4283391067
0.30548003 0.36525404 0.1573025 4283522140
0.30734506 0.36388487 0.15695983 4283587933
0.30820438 0.36259738 0.15721147 4283587931
0.29924515 0.3724578 0.15680999 4283324759
0.3003909 0.37074113 0.15714549 4283259223
0.29286388 0.37845573 0.15716338 4283062102
0.29436931 0.3769128 0.15715981 4283193945
0.29587471 0.37536991 0.15715623 4283325273
0.29702047 0.37365326 0.15749173 4283456602
0.28741515 0.38376909 0.15734546 4283127380
0.2882745 0.38248158 0.15759709 4283390552
0.28913382 0.38119408 0.15784872 4283324759
0.29214466 0.3781082 0.15784156 4283062101
0.29300398 0.37682074 0.1580932 4283194202
0.27451888 0.40024078 0.15534674 4283587412
0.27566463 0.39852414 0.15568224 4283653205
0.27681041 0.39680746 0.15601775 4283521617
0.27795619 0.39509076 0.15635325 4283587412
0.27910197 0.39337409 0.15668876 4283784791
0.28024775 0.39165741 0.15702428 4283784278
0.28139353 0.38994074 0.15735978 4283718232
0.28253931 0.38822407 0.15769528 4283521366
0.28368509 0.38650742 0.15803079 4283455573
0.28483087 0.38479072 0.15836631 4283193171
0.28669593 0.38342154 0.15802364 4283258964
0.28755522 0.38213405 0.15827526 4283587931
0.28841454 0.38084653 0.1585269 4283390552
0.27057555 0.40401122 0.15552522 4283587159
0.27143487 0.40272373 0.15577686 4283455573
0.26534009 0.40829244 0.15621415 4283455574
0.26684549 0.40674955 0.15621056 4283587160
0.26835087 0.40520662 0.15620698 4283389780
0.26075068 0.41231826 0.15664785 4283652439
0.26161 0.41103077 0.15689948 4283520853
0.26462081 0.40794492 0.15689231 4283521367
0.26548013 0.40665746 0.15714395 4283652954
0.26003143 0.41197076 0.15732603 4283586899
0.26089075 0.41068324 0.15757765 4283586644
0.25229111 0.42071745 0.15683708 4285823089
0.25315046 0.41942993 0.15708871 4285888884
0.25587481 0.41677329 0.15699767 4285625712
0.25673413 0.41548577 0.1572493 4285297003
0.25759351 0.41419825 0.15750094 4285100136
0.24626949 0.42688912 0.1568514 4285363570
0.24712884 0.4256016 0.15710303 4285429616
0.24827461 0.42388496 0.15743853 4285560689
0.25157186 0.42036995 0.15751526 4285757298
0.25243118 0.41908243 0.15776689 4285691503
0.24461775 0.42722619 0.15770091 4282533188
0.23995514 0.4306491 0.15855758 4280558881
0.24153373 0.42970911 0.15813103 4280624674
0.23923588 0.43030158 0.15923575 4280625191
0.32100937 0.35436338 0.15278952 4283587422
0.3214007 0.35261452 0.15228732 4283521373
0.31576565 0.35865137 0.15347953 4283325020
0.31643608 0.35647872 0.15306254 4283127641
0.31840092 0.35554755 0.15305366 4283259227
0.31945637 0.35338315 0.15305535 4283390813
0.31504527 0.35830331 0.15415877 4283522399
0.31571457 0.35613009 0.15374285 4283127641
0.313104 0.35907075 0.1549256 4283325530
0.31377023 0.35689873 0.1545109 4283522652
0.30929479 0.36120948 0.15603566 4283719517
0.31002843 0.35964569 0.1551984 4283588188
0.31091496 0.35855573 0.15530938 4283588188
0.31211329 0.35723686 0.15536308 4283325272
0.30613261 0.36309242 0.15689009 4283653726
0.30738336 0.36090496 0.15655726 4283719518
0.30894613 0.35912278 0.15621886 4283390552
0.30952084 0.35826173 0.15638714 4283522138
0.30103549 0.36858821 0.15673283 4283456602
0.30189615 0.36729863 0.15698485 4283457115
0.30304375 0.36557928 0.15732089 4283391322
0.30369419 0.36341754 0.15690994 4283522394
0.30455622 0.36212593 0.15716237 4283587931
0.29407039 0.37545526 0.15691876 4283259995
0.29441935 0.37373954 0.15642305 4283259995
0.29528141 0.37244797 0.15667547 4283522651
0.29684043 0.37098554 0.15703455 4283522138
0.2983017 0.3693524 0.15666829 4283324759
0.29945111 0.3676303 0.15700486 4283587931
0.30060047 0.36590824 0.15734142 4283522651
0.29004756 0.37862769 0.15752117 4282995793
0.29090825 0.37733817 0.1577732 4283061585
0.29214308 0.37516561 0.1574413 4282996824
0.29304972 0.37364712 0.15735938 4282930776
0.2945599 0.37209934 0.15735579 4283128155
0.29570928 0.37037727 0.15769234 4283391067
0.28545094 0.38265988 0.15795556 4283193684
0.28619289 0.38094732 0.15787669 4283653980
0.28693575 0.37923339 0.15779804 4283587931
0.28856248 0.37811077 0.15812546 4283126866
0.28942385 0.37682021 0.15837769 4283061585
0.29081807 0.37484628 0.15804328 4283062100
0.2916801 0.37355474 0.15829571 4282930776
0.27203384 0.40062112 0.15536204 4283456343
0.27305236 0.39849252 0.1553652 4283390551
0.27407223 0.39636183 0.15536872 4283587157
0.27493429 0.39507028 0.15562114 4283390290
0.27579632 0.39377871 0.15587357 4283456083
0.27694571 0.39205664 0.15621012 4283521877
0.2780951 0.39033455 0.1565467 4283587671
0.27924448 0.38861245 0.15688325 4283521623
0.28039384 0.38689041 0.15721983 4283390294
0.28154325 0.38516831 0.15755638 4283390294
0.28269264 0.38344622 0.15789296 4283390550
0.28355467 0.38215467 0.15814537 4283127378
0.26679012 0.40490907 0.15605204 4283455575
0.26809558 0.40262172 0.15574643 4283323988
0.26929361 0.40130329 0.15580003 4283258964
0.27069122 0.39928308 0.15571606 4283456343
0.26248041 0.40851137 0.15657043 4283455317
0.26606974 0.40456101 0.15673128 4283521368
0.26694939 0.40203005 0.15640354 4283323989
0.26781142 0.40073845 0.15665597 4283323987
0.26176 0.40816331 0.15724967 4283586903
0.26270628 0.40624282 0.15649846 4283389780
0.26356831 0.40495127 0.15675089 4283521366
0.25372064 0.41735366 0.15667595 4286152054
0.2545813 0.41606414 0.15692799 4285888882
0.25544289 0.41355121 0.15660056 4285625965
0.25709435 0.41240165 0.15692893 4285560170
0.25845757 0.41168386 0.15717284 4284375895
0.25903788 0.40959463 0.15676166 4283718485
0.2601873 0.40787253 0.15709823 4283586646
0.2610493 0.40658095 0.15735064 4283784025
0.24883711 0.42181566 0.15702634 4285823091
0.24940231 0.41974232 0.15661493 4285823091
0.2505517 0.41802025 0.15695149 4285822833
0.25220701 0.41686717 0.15727958 4285954162
0.25386092 0.41571608 0.15760723 4285823344
0.25472137 0.41320261 0.15728088 4285823086
0.25558341 0.41191104 0.1575333 4285954159
0.24488756 0.42559201 0.1572051 4283651669
0.24546136 0.42473233 0.15737313 4284638564
0.24602126 0.42266357 0.15696226 4285757044
0.24717066 0.4209415 0.15729883 4285822835
0.24019462 0.42781931 0.15748507 4280690210
0.24177818 0.42687637 0.15705718 4280953129
0.24264021 0.42558482 0.15730961 4281544496
0.23731482 0.42927471 0.15842499 4280756777
0.23947307 0.42747068 0.15816538 4280624674
0.23659329 0.42892611 0.1591053 4280756777
0.31710923 0.35430202 0.15264635 4283193434
0.31778505 0.3521212 0.1522309 4283390815
0.31939206 0.35101357 0.15256163 4283325021
0.31638658 0.35395285 0.15332772 4283325020
0.31706128 0.3517715 0.15291335 4283193950
0.31792602 0.35047588 0.15316656 4283259743
0.31415141 0.35515389 0.15401271 4283325273
0.31491894 0.35341704 0.15393253 4283259738
0.31061798 0.35686821 0.15521051 4283391065
0.31119359 0.35600576 0.15537906 4283325272
0.31193382 0.35443434 0.15454227 4283325272
0.30744591 0.35875705 0.15606762 4283851103
0.30870283 0.35656184 0.15573569 4283456602
0.30972114 0.35547209 0.15598561 4283390811
0.31084812 0.35390979 0.15556595 4283391067
0.30549851 0.35952687 0.15683688 4283587417
0.30615613 0.35735428 0.15642801 4283718490
0.29707253 0.36857152 0.15660204 4283390552
0.29782668 0.36684516 0.1565239 4283390552
0.29886997 0.3646856 0.15653042 4283588188
0.30043155 0.36322087 0.15688936 4283653725
0.30163336 0.36189827 0.15694314 4283784796
0.30276448 0.36028472 0.15677643 4283652952
0.30362922 0.35898909 0.15702966 4283783255
0.30449396 0.35769346 0.15728287 4283849048
0.29281041 0.37089616 0.15654483 4282996569
0.2939634 0.36916867 0.15688245 4283193948
0.29558903 0.36804771 0.15720955 4283391069
0.29710346 0.36649573 0.15720582 4283456604
0.29814616 0.36433589 0.15721287 4283785312
0.29929915 0.3626084 0.1575505 4283653213
0.30016392 0.36131278 0.15780371 4284047714
0.28900155 0.37493643 0.15781064 4283061585
0.28934509 0.37321985 0.15731889 4283127891
0.29020983 0.37192422 0.15757211 4283127893
0.2920866 0.37054643 0.15722728 4283062362
0.29323959 0.36881897 0.15756491 4283259484
0.29410437 0.36752331 0.15781812 4283390813
0.2841762 0.38001826 0.15773717 4283193686
0.28508866 0.37744588 0.15741411 4283587162
0.28624165 0.37571838 0.15775172 4283389269
0.28710642 0.37442276 0.15800494 4283126354
0.26899904 0.39857247 0.15523207 4283390550
0.27044401 0.39668304 0.15525974 4283456344
0.27215591 0.39587998 0.15555684 4283522137
0.27304953 0.39333245 0.15523037 4283324757
0.27391428 0.39203689 0.15548359 4283258964
0.27477902 0.39074123 0.1557368 4283258964
0.27593201 0.38901374 0.15607442 4283522138
0.27708504 0.38728625 0.15641205 4283456345
0.27823803 0.38555875 0.15674967 4283193173
0.27939099 0.38383129 0.1570873 4283390552
0.28054398 0.3821038 0.15742491 4283258966
0.28140876 0.38080817 0.15767813 4283390552
0.2682758 0.39822304 0.15591398 4283521623
0.26929599 0.39608806 0.15592003 4283522136
0.26415849 0.40285069 0.15634048 4283192914
0.26475132 0.40074596 0.15593083 4283390293
0.26590431 0.39901847 0.15626846 4283324498
0.26676905 0.39772284 0.15652166 4283324753
0.25688368 0.4101705 0.15644275 4285231204
0.25803486 0.40844575 0.15677984 4284374873
0.25861812 0.40634978 0.15637088 4283914841
0.26010448 0.40500751 0.15670171 4283652183
0.26164788 0.4032445 0.15636367 4283587159
0.26251262 0.40194893 0.15661688 4283390037
0.2519848 0.41464654 0.15679422 4285888112
0.25299162 0.41252476 0.15680057 4285888112
0.2539998 0.41040096 0.1568073 4285888112
0.25616103 0.40982133 0.15712412 4285756780
0.25731224 0.40809655 0.15746121 4284769631
0.25789434 0.40600008 0.15705332 4284440415
0.25875905 0.40470445 0.15730654 4283651926
0.24743739 0.418082 0.15622728 4285822834
0.24830215 0.41678637 0.15648049 4285888112
0.24945515 0.41505888 0.15681812 4285888366
0.24043944 0.42498145 0.15641411 4281018405
0.24130417 0.42368582 0.15666732 4281215529
0.24297123 0.42252186 0.15699464 4282531391
0.24434868 0.42179182 0.15723717 4284506208
0.24491045 0.41971681 0.15682893 4285493103
0.24577522 0.41842115 0.15708214 4285756526
0.23757595 0.42764348 0.15793294 4280690984
0.23971565 0.42463171 0.15709655 4280756003
0.24058041 0.42333609 0.15734977 4280952869
0.24173342 0.4216086 0.15768738 4281479216
0.2368533 0.42729434 0.15861431 4280756777
0.31904101 0.34907129 0.15198538 4283390815
0.3183161 0.34872103 0.15266889 4283325536
0.3154965 0.35079098 0.15318693 4283259742
0.31626812 0.34904796 0.15310796 4283325535
0.31250522 0.35181022 0.15379943 4283325272
0.31392744 0.34981012 0.15346345 4283259737
0.31479493 0.34851041 0.15371747 4283457374
0.30943611 0.35222349 0.15483986 4283390810
0.31131876 0.35084137 0.15449396 4283391066
0.30681649 0.35517767 0.15601997 4283652697
0.30747959 0.35299698 0.15561272 4283652954
0.30153978 0.3594926 0.15671431 4283914843
0.30219463 0.35731864 0.15630814 4284178015
0.30306208 0.35601896 0.15656215 4284178014
0.30494472 0.35463688 0.15621625 4283849560
0.30581218 0.3533372 0.15647025 4283784278
0.29547077 0.36571285 0.15672874 4283456860
0.29651561 0.3635487 0.15673712 4283587933
0.29756185 0.36138251 0.15674596 4283653472
0.29871845 0.3596496 0.15708463 4283850851
0.30081487 0.35914236 0.15739782 4283849820
0.30146858 0.35696784 0.15699273 4284178015
0.30233604 0.35566816 0.15724674 4284309600
0.29113394 0.36933783 0.1572504 4283325274
0.29177248 0.36717927 0.15684508 4283391067
0.29263994 0.36587963 0.15709908 4283391067
0.29427114 0.36475465 0.15742499 4283522140
0.29541475 0.36308113 0.15751137 4283587678
0.29683581 0.36103171 0.15743053 4283653472
0.29799241 0.3592988 0.15776922 4283982950
0.28744823 0.3727054 0.15751484 4283257939
0.28808105 0.37055209 0.15710992 4283258457
0.28894851 0.36925241 0.15736394 4283325021
0.27062359 0.39432228 0.15482767 4283522138
0.2713601 0.39261335 0.15474997 4283456343
0.27238667 0.39046988 0.15475723 4283193171
0.27354327 0.38873699 0.15509592 4283062098
0.27441075 0.38743731 0.15534993 4283325272
0.27527818 0.3861376 0.15560395 4283522652
0.27643478 0.38440472 0.15594262 4283325273
0.27759138 0.38267186 0.15628129 4283259223
0.27845883 0.38137215 0.1565353 4283258966
0.2820304 0.37866822 0.15727204 4283127637
0.28306472 0.37651417 0.15728085 4283456345
0.28410047 0.37435815 0.1572901 4283586904
0.28525707 0.37262523 0.15762877 4283257684
0.26989865 0.39397201 0.15551119 4283851101
0.27063459 0.39226282 0.15543403 4283455573
0.27166063 0.39011908 0.15544182 4283193171
0.27281722 0.38838619 0.15578051 4283193171
0.27368468 0.38708651 0.15603451 4283193686
0.27455214 0.3857868 0.15628852 4283456858
0.27570873 0.38405392 0.15662719 4283325272
0.27686533 0.38232106 0.15696587 4283259222
0.27773279 0.38102135 0.15721989 4283258966
0.26736775 0.39560941 0.15611377 4283521621
0.26825833 0.39305863 0.15579136 4283652952
0.26912579 0.39175898 0.15604535 4283455060
0.26022059 0.40211576 0.15597053 4283586904
0.26094934 0.40041295 0.15589409 4283587159
0.26277146 0.39945513 0.15621689 4283390293
0.26398861 0.39729792 0.15588686 4283390550
0.26485607 0.39599824 0.15614086 4283193171
0.25457853 0.40830734 0.15639986 4285888366
0.25544465 0.40700969 0.15665348 4285493609
0.25645819 0.40487781 0.15666179 4284638816
0.25747317 0.40274391 0.15667057 4283455831
0.25911027 0.40165821 0.15674458 4283390040
0.26022327 0.40006214 0.15657866 4283587161
0.26080158 0.39919567 0.15674801 4283258196
0.25031546 0.41253999 0.15649523 4285888366
0.25118154 0.41124237 0.15674883 4285756781
0.25175768 0.40914926 0.15634273 4285822318
0.25262514 0.40784958 0.15659674 4285888112
0.24301787 0.41988277 0.15659781 4283519056
0.24358124 0.41780323 0.15619145 4284835426
0.24575305 0.41598788 0.15593022 4285822319
0.24633135 0.41512147 0.15609956 4285888366
0.24719879 0.41382179 0.15635356 4285954159
0.24835539 0.41208887 0.15669224 4285954158
0.24922284 0.41078919 0.15694626 4286019950
0.24229294 0.41953254 0.15728131 4282005819
0.24285519 0.41745242 0.15687604 4283848783
0.10080355 0.56194884 0.1578967 4286610295
0.10196016 0.56021589 0.15823539 4286215797
0.10311677 0.558483 0.15857406 4287334532
0.095186219 0.56811845 0.15899472 4286545269
0.096414782 0.56699592 0.15890658 4286149229
0.097304121 0.56498903 0.15891667 4286873209
0.098194852 0.56298012 0.15892719 4286808184
0.099351443 0.56124723 0.15926588 4287466371
0.10053267 0.55971718 0.15946223 4286676089
0.10166465 0.5577814 0.15994322 4288583826
0.092042446 0.56860149 0.1593686 4286149228
0.093606129 0.56764036 0.15985928 4286676855
0.094964944 0.56629544 0.16027361 4288781975
0.095853142 0.56428796 0.16028476 4286215024
0.096742734 0.56227851 0.16029635 4287795079
0.09789934 0.56054562 0.16063504 4286216050
0.098766789 0.55924594 0.16088904 4288124304
0.088855438 0.57049918 0.16022976 4287663237
0.089722887 0.56919956 0.16048376 4287070845
0.090953365 0.56807524 0.16039549 4284636247
0.091820814 0.56677562 0.16064949 4287268737
0.092977427 0.56504267 0.16098817 4286478710
0.09413404 0.56330979 0.16132684 4287136124
0.095290631 0.5615769 0.16166553 4285557349
0.096084207 0.5596686 0.1623465 4289571495
0.086609744 0.57170588 0.16091795 4284308054
0.087477207 0.57040626 0.16117196 4285492328
0.088633806 0.56867331 0.16151065 4285097313
0.089501269 0.56737369 0.16176465 4287137151
0.090731747 0.56624937 0.16167636 4285821294
0.091888346 0.56451648 0.16201505 4287860362
0.093044959 0.5627836 0.16235372 4287794823
0.094490699 0.56061745 0.16277707 4287531910
0.095358163 0.55931783 0.16303107 4287268227
0.083397925 0.57500762 0.16226126 4285623402
0.084104888 0.57373255 0.16215558 4283912783
0.085231535 0.57161295 0.16186015 4285886829
0.086388126 0.56988001 0.16219883 4284768605
0.087544739 0.56814712 0.16253752 4287926668
0.088412188 0.56684744 0.16279152 4288716438
0.080961786 0.57585222 0.16195567 4285689193
0.081611849 0.57463849 0.16229555 4285491816
0.082961217 0.57261676 0.16269067 4285426537
0.084167063 0.5712896 0.16274472 4286808189
0.085662067 0.56952924 0.16288342 4284570969
0.079509683 0.57515061 0.16332483 4287135871
0.080377139 0.57385093 0.16357884 4285491559
0.08189676 0.5722934 0.16357523 4285426536
0.082764208 0.57099372 0.16382924 4284965985
0.076900974 0.57618189 0.16435532 4286215542
0.077768423 0.57488221 0.16460933 4284504924
0.079288058 0.57332474 0.16460572 4285492074
0.31685248 0.34641182 0.15236439 4283325535
0.31271771 0.34900466 0.15340009 4283193686
0.31339329 0.34681302 0.15299162 4283719519
0.31537718 0.34587231 0.15297639 4283391327
0.31010494 0.35003754 0.15443219 4283391067
0.31124705 0.34841201 0.15426596 4283391066
0.31266499 0.34646115 0.15367834 4284113505
0.30785576 0.35124609 0.15512146 4283521368
0.30862436 0.34950083 0.15504581 4283521624
0.30939391 0.3477543 0.15497047 4283522652
0.30372095 0.35383898 0.15615718 4284046427
0.30438253 0.35165486 0.155753 4283784278
0.30593157 0.35029605 0.1556066 4283718231
0.30714121 0.34896472 0.15566082 4283587159
0.29937056 0.35747525 0.15668046 4283916898
0.30023935 0.35617355 0.15693487 4283982177
0.30089554 0.35399312 0.1565319 4284112992
0.30217505 0.35295546 0.1568054 4283981662
0.30365422 0.35130295 0.15643972 4284047963
0.30452436 0.34999928 0.15669452 4283521619
0.29530978 0.36067769 0.15728855 4283850592
0.29624829 0.35806969 0.15697107 4283785313
0.29782012 0.35659555 0.15732922 4284048741
0.29910102 0.35555735 0.15760224 4284048483
0.3001672 0.35364124 0.15721862 4283981919
0.30103737 0.35233751 0.15747342 4283916126
0.28929576 0.36752698 0.1568754 4283456607
0.28987497 0.36665913 0.15704501 4283456862
0.29051501 0.36449504 0.15664221 4283521885
0.29167518 0.36275676 0.15698195 4283587419
0.29283541 0.36101845 0.15732168 4283850334
0.28588817 0.37047115 0.15722547 4283586650
0.28623191 0.36874753 0.15673801 4283323739
0.28710207 0.3674438 0.15699282 4283521375
0.27842617 0.3794899 0.15638831 4283193173
0.27929497 0.37818819 0.15664272 4283193173
0.28016374 0.37688652 0.15689713 4283324759
0.28103259 0.37558481 0.15715154 4283390551
0.28194883 0.37300003 0.15683383 4283521366
0.28310907 0.37126175 0.15717356 4283521111
0.28397924 0.36995801 0.15742835 4283389527
0.26966956 0.3895629 0.15527698 4283389267
0.27099457 0.3872478 0.15497616 4283192914
0.27215481 0.38550946 0.15531591 4283193171
0.27331498 0.38377115 0.15565562 4283324758
0.27418515 0.38246742 0.15591043 4283456345
0.27505532 0.38116372 0.15616523 4283324757
0.26183212 0.39786825 0.15557286 4283521366
0.26270092 0.39656657 0.15582727 4283521366
0.26356974 0.39526486 0.15608168 4283390550
0.26495686 0.39329597 0.15574868 4283324755
0.26582631 0.39199328 0.15600328 4283390550
0.26721749 0.39002061 0.15567012 4283390293
0.25892973 0.39933509 0.15652016 4283324761
0.2602427 0.39703047 0.15622048 4283455575
0.2615431 0.39597136 0.15649405 4283323989
0.26198214 0.39442435 0.15672982 4283323988
0.26344043 0.39279339 0.1563641 4283521367
0.2643106 0.39148968 0.15661889 4283389782
0.25291571 0.40618435 0.15610701 4285954160
0.25349492 0.40531653 0.15627661 4285822574
0.25436375 0.40401483 0.15653102 4285362792
0.25538054 0.40187642 0.15654133 4284706146
0.25639868 0.39973605 0.15655209 4283522651
0.25755894 0.39799771 0.15689182 4283456345
0.24414733 0.41571957 0.1557859 4285690987
0.24471611 0.41363189 0.15538114 4285757037
0.24587633 0.41189358 0.15572087 4285822830
0.24703652 0.4101553 0.15606061 4285954159
0.2487074 0.40899 0.15638623 4285954159
0.24914099 0.40772375 0.15622686 4285954159
0.2506654 0.40616137 0.15622324 4285757296
0.2518256 0.40442309 0.15656297 4285888882
0.25269574 0.40311939 0.15681776 4285691757
0.23950733 0.41978976 0.15622438 4281018405
0.24037614 0.41848809 0.15647879 4280953129
0.24109221 0.41679519 0.1564042 4281611055
0.24261467 0.4152346 0.15640071 4284769372
0.24398778 0.41327998 0.15606786 4285691502
0.245148 0.4115417 0.15640759 4285626223
0.24630819 0.40980339 0.15674733 4285822832
0.24717836 0.40849963 0.15700214 4286019698
0.24775848 0.40763047 0.15717201 4286019698
0.23486732 0.42385998 0.15666288 4281019949
0.23609973 0.42273396 0.15657446 4280887589
0.23833743 0.41920662 0.15689138 4280821024
0.23876444 0.41767168 0.15712735 4280821539
0.24036446 0.41644356 0.15709038 4281478955
0.2410809 0.41474906 0.15701663 4282794301
0.099908143 0.55834389 0.15937755 4287465604
0.10229895 0.55548227 0.15962833 4286084206
0.10316775 0.55418056 0.15988272 4286939259
0.1031528 0.55213255 0.15982771 4286741623
0.104313 0.5503943 0.16016744 4288122763
0.10547322 0.54865599 0.16050719 4285162849
0.10634337 0.54735225 0.16076198 4288058254
0.098817348 0.55781686 0.16040602 4286940030
0.099686168 0.55651516 0.16066043 4286543986
0.10084456 0.55477953 0.16099964 4287728516
0.10171337 0.55347782 0.16125403 4285031518
0.10206031 0.55160475 0.1608578 4287268479
0.10322052 0.54986644 0.16119753 4287070587
0.10438074 0.54812813 0.16153726 4286938490
0.10525089 0.5468244 0.16179205 4285622887
0.096278571 0.55945933 0.16101049 4287466887
0.096941046 0.5574072 0.16152984 4286084721
0.097904392 0.55563867 0.16145559 4287794053
0.099227525 0.55368435 0.16137826 4287793540
0.10009768 0.55238062 0.16163306 4285952619
0.10096785 0.55107689 0.16188787 4286610294
0.10212805 0.54933858 0.1622276 4285426021
0.10328826 0.54760027 0.16256733 4287531397
0.10415842 0.54629654 0.16282214 4285031263
0.093376182 0.56092614 0.16195779 4286413429
0.095982604 0.55702102 0.16272101 4286675318
0.09712705 0.5548799 0.16242748 4286675062
0.098135047 0.5531565 0.16240835 4286675060
0.0990052 0.55185276 0.16266315 4288450955
0.099875361 0.55054903 0.16291796 4286214508
0.10139973 0.54898667 0.16291432 4288123533
0.10255994 0.54724836 0.16325407 4286478963
0.1034301 0.54594469 0.16350886 4286478963
0.089099795 0.56517202 0.16205344 4285624172
0.090258203 0.56343639 0.16239265 4287399815
0.091416612 0.56170082 0.16273186 4286872698
0.092037551 0.55940592 0.16242285 4287464579
0.09319777 0.55766761 0.16276258 4285951341
0.094357975 0.5559293 0.16310231 4288385934
0.095518179 0.55419099 0.16344206 4285951088
0.096678406 0.55245268 0.16378179 4287596683
0.083517 0.56993437 0.16266514 4286412665
0.084385805 0.56863266 0.16291955 4285359717
0.085749529 0.56709331 0.16255739 4287070589
0.086097337 0.56563514 0.16279629 4285622628
0.087372564 0.56419301 0.16310115 4287597959
0.088260494 0.56217873 0.16311681 4285754479
0.089445405 0.56064397 0.16331379 4288057487
0.09094508 0.55887806 0.16345292 4286872184
0.091815248 0.55757433 0.16370773 4287464834
0.080614626 0.57140118 0.16361244 4285492071
0.081927359 0.5694564 0.1635358 4285097572
0.083018802 0.56783217 0.1636249 4287597193
0.083613269 0.56625527 0.16355599 4285096545
0.084483422 0.56495154 0.16381079 4287400323
0.086007804 0.56338918 0.16380717 4288388243
0.087168008 0.56165087 0.1641469 4286478711
0.088038176 0.56034714 0.1644017 4287070078
0.078001834 0.57243407 0.16464454 4288057749
0.079244681 0.57060283 0.16431832 4285755248
0.080265224 0.56872952 0.16449636 4286742140
0.081650637 0.56703115 0.16433127 4287728263
0.082520805 0.56572747 0.16458607 4285490531
0.083390951 0.56442374 0.16484086 4286676603
0.075479046 0.5726701 0.16477406 4286479482
0.076349206 0.57136637 0.16502886 4285162854
0.077219374 0.57006264 0.16528365 4285490794
0.3140716 0.34461731 0.1525839 4283587933
0.31465259 0.34374681 0.15275402 4283587933
0.31145066 0.34565347 0.1536192 4284310884
0.31259748 0.34402242 0.15345339 4284113506
0.31346184 0.34277096 0.15345569 4283850335
0.30986789 0.34466958 0.15390642 4283588446
0.3107408 0.34336177 0.154162 4283588448
0.30571383 0.34727451 0.15494698 4283718487
0.30760822 0.34588376 0.15459891 4283390295
0.30221596 0.34962004 0.1557283 4283981917
0.30308881 0.34831223 0.1559839 4283719000
0.30498323 0.34692147 0.15563583 4283587414
0.29864296 0.35327995 0.15707994 4283982689
0.29930001 0.35109365 0.15668002 4283916639
0.30082914 0.34952644 0.15667638 4283784540
0.30235824 0.34795925 0.15667275 4283587160
0.29348174 0.35884482 0.15692069 4284113505
0.29424223 0.35710278 0.1568483 4284443496
0.29529458 0.35492349 0.15686132 4284180580
0.29616743 0.3536157 0.15711692 4284180581
0.28802997 0.36484492 0.15667638 4283456095
0.28890151 0.36353916 0.15693158 4283456095
0.28954342 0.36136883 0.15653144 4283653472
0.29070723 0.3596251 0.15687223 4283916128
0.29158011 0.35831732 0.15712783 4284047714
0.28449321 0.36736998 0.15669984 4283521113
0.28524706 0.36563453 0.15662755 4283521115
0.28611991 0.36432675 0.15688315 4283521628
0.28699276 0.36301896 0.15713874 4283521885
0.26916376 0.38611251 0.15417498 4283520853
0.2703276 0.38436881 0.15451579 4283258194
0.27149144 0.3826251 0.15485658 4283323987
0.27265525 0.3808814 0.15519737 4283455575
0.2735281 0.37957358 0.15545297 4283587159
0.27518272 0.37842605 0.15577805 4283324500
0.27712652 0.37684512 0.15618777 4283258964
0.27828851 0.37510416 0.15652804 4283456343
0.27891397 0.37295178 0.15612727 4283587929
0.27978683 0.37164399 0.15638286 4283390550
0.28095067 0.36990029 0.15672365 4283456343
0.2653515 0.39015114 0.15544397 4283258964
0.26566592 0.38845804 0.15495633 4283258964
0.26696718 0.38739753 0.15523012 4283456086
0.26843318 0.38575953 0.15486385 4283323987
0.26959702 0.38401583 0.15520464 4283258194
0.27076083 0.38227212 0.15554543 4283258196
0.27192467 0.38052842 0.15588622 4283520855
0.27279752 0.3792206 0.15614182 4283718234
0.27367038 0.37791285 0.1563974 4283652440
0.2621496 0.39205775 0.15630914 4283389782
0.263374 0.38988739 0.15598264 4283390039
0.2642791 0.38836446 0.15590441 4283324759
0.26580819 0.38679728 0.15590076 4283193686
0.2581504 0.39588159 0.15649016 4283456088
0.25874454 0.39376152 0.15608934 4283323989
0.25990835 0.39201781 0.15643014 4283323989
0.26078126 0.39071 0.15668572 4283521368
0.24877365 0.40631706 0.15599793 4285888366
0.24935465 0.40544656 0.15616806 4285625710
0.24993515 0.40334129 0.15576673 4285757296
0.25172904 0.40154722 0.15618202 4285691502
0.2526986 0.4000946 0.15646593 4285494892
0.25393414 0.39869019 0.1567727 4284903525
0.25507492 0.39701682 0.15686083 4284245596
0.25648487 0.39497572 0.15678184 4283652949
0.24208567 0.41344672 0.15584232 4284835678
0.24266666 0.41257623 0.15601245 4285493608
0.24353819 0.41127044 0.15626764 4285298030
0.24440064 0.40873832 0.15595168 4285757298
0.24556445 0.40699461 0.15629247 4286151286
0.24716692 0.40548879 0.15665077 4286085492
0.2481132 0.4045186 0.15687238 4285822576
0.24920458 0.40298831 0.15645559 4285757296
0.25036839 0.40124458 0.15679638 4285823089
0.2515322 0.39950088 0.15713717 4285823089
0.25269607 0.39775717 0.15747796 4285560429
0.25356892 0.39644939 0.15773356 4285034597
0.24135622 0.41309428 0.15653011 4283519564
0.24193721 0.41222376 0.15670024 4285032803
0.24280873 0.410918 0.15695544 4285298030
0.24367003 0.40838534 0.15664053 4285692275
0.24483384 0.4066416 0.15698132 4286216822
0.2459977 0.40489787 0.15732211 4286019443
0.24687055 0.40359011 0.15757771 4285756528
0.2353003 0.41875404 0.15554386 4280690465
0.23595439 0.41753271 0.15588588 4280558622
0.2366807 0.41596198 0.15639947 4280690208
0.237997 0.41488725 0.15667258 4280821796
0.23944801 0.41326344 0.15630701 4281610542
0.24061182 0.41151974 0.1566478 4282401083
0.24148469 0.41021195 0.1569034 4284442721
0.2342044 0.41822451 0.15657715 4280625442
0.23507728 0.41691676 0.15683274 4280428064
0.23595014 0.41560897 0.15708834 4280428065
0.23682299 0.41430119 0.15734392 4280624674
0.10458551 0.54502255 0.16200075 4286543984
0.10545702 0.54371679 0.16225594 4286214508
0.10661904 0.5419758 0.16259621 4281345832
0.10778106 0.5402348 0.16293646 4279965465
0.10865257 0.53892905 0.16319168 4279768855
0.10952409 0.53762329 0.16344687 4279703060
0.1103956 0.53631753 0.16370207 4279506451
0.10014735 0.54805869 0.16295463 4287859590
0.10130937 0.5463177 0.16329488 4286280557
0.10281137 0.54454911 0.16343424 4285950310
0.10399813 0.5430119 0.16363151 4282660406
0.10490175 0.54097748 0.16364968 4280621854
0.10617509 0.53953743 0.16395445 4280031258
0.1065357 0.53806162 0.16419622 4279571476
0.10780904 0.53662157 0.164501 4279703062
0.10884471 0.53473014 0.16468064 4280033565
0.10951579 0.53266114 0.16520497 4280626214
0.11038865 0.53135335 0.16546057 4281349684
0.097019635 0.55057681 0.16339085 4287069820
0.097891144 0.54927105 0.16364604 4287201660
0.099053167 0.54753006 0.16398631 4285688419
0.10021519 0.54578906 0.16432658 4287398522
0.10111638 0.5437566 0.16434506 4283055160
0.1020189 0.54172206 0.16436391 4280555546
0.10318272 0.53997833 0.1647047 4279964694
0.10405559 0.53867054 0.16496028 4279833621
0.10492846 0.53736281 0.16521588 4279505683
0.10609227 0.53561908 0.16555667 4279967003
0.10725609 0.53387535 0.16589746 4280626213
0.10841992 0.53213167 0.16623825 4281218349
0.10929278 0.53082389 0.16649385 4281678902
0.088804923 0.55927128 0.16323887 4289833384
0.089676432 0.55796552 0.16349407 4286542707
0.090819433 0.5558213 0.1632034 4287201662
0.092096865 0.55437666 0.16350847 4286675576
0.09337353 0.55293316 0.16381328 4287004284
0.093727492 0.55146426 0.16405495 4286478197
0.094871499 0.54987752 0.16419873 4287399811
0.096034639 0.5481348 0.16453934 4287400066
0.09719824 0.54639149 0.16488005 4286018154
0.098230094 0.54450351 0.16506003 4284568912
0.099393912 0.54275978 0.16540082 4281015582
0.10092303 0.54119259 0.16539718 4280096022
0.10179589 0.53988481 0.16565278 4279636499
0.084731489 0.56248361 0.16384885 4286480251
0.08534734 0.56018627 0.16354464 4287268740
0.087032594 0.55860132 0.16389917 4285293667
0.088310994 0.55715597 0.16420406 4287859077
0.089204088 0.55513161 0.1642226 4286477939
0.090367906 0.55338794 0.16456339 4287860876
0.091240779 0.55208015 0.16481899 4288584598
0.092138417 0.55097651 0.16493136 4285755499
0.093642749 0.54920518 0.16507094 4287005053
0.094806582 0.54746145 0.16541173 4286149999
0.0959704 0.54571772 0.16575253 4285228126
0.09713421 0.54397404 0.16609332 4281476132
0.098298043 0.54223031 0.16643411 4280424218
0.080367543 0.56613129 0.16437377 4285952108
0.081239052 0.56482553 0.16462897 4287596674
0.081558518 0.56296772 0.16424078 4286280560
0.083087638 0.56140053 0.16423714 4286874495
0.083960503 0.56009275 0.16449274 4288913051
0.077239834 0.56864935 0.16480999 4286873217
0.078111343 0.56734359 0.16506518 4285623149
0.079082213 0.56523031 0.16441844 4287530887
0.079955086 0.56392252 0.16467403 4289043866
0.080827951 0.56261474 0.16492963 4285623400
0.073256716 0.57106322 0.16451819 4286609527
0.074129581 0.56975543 0.16477378 4286280562
0.075293407 0.56801176 0.16511457 4289373090
0.076457225 0.56626803 0.16545537 4285557608
0.078351632 0.56487733 0.16510729 4288518296
0.079224497 0.56356955 0.16536289 4288847259
0.080097355 0.56226176 0.16561849 4286150259
0.31112686 0.34159607 0.15367366 4283390558
0.31151479 0.33982766 0.15318584 4283061594
0.30638352 0.34507829 0.15454517 4283389780
0.30746424 0.3431471 0.15416162 4283456602
0.30854782 0.34121317 0.153778 4283260253
0.30907369 0.33998439 0.15398324 4283128410
0.31021887 0.33840051 0.15356544 4282864983
0.30354723 0.34523076 0.15492791 4283390033
0.30483246 0.3441875 0.15520121 4283456088
0.30632305 0.3425239 0.15483515 4283390552
0.30699706 0.34031898 0.15443599 4283522138
0.30758169 0.33944306 0.15460719 4283456345
0.30062222 0.34670898 0.15588258 4283718747
0.30215609 0.34513691 0.15587893 4283521110
0.30292714 0.34338075 0.15580854 4283389781
0.29682234 0.35142928 0.15671848 4284114788
0.29747996 0.34923881 0.15632083 4283588444
0.29830894 0.34783736 0.15621565 4283653724
0.29222789 0.3561382 0.1567294 4284179556
0.29317024 0.35351774 0.15641724 4284180068
0.29433769 0.35176864 0.15675908 4284048740
