# .PCD v0.7 - Point Cloud Data file format
VERSION 0.7
FIELDS x y z rgb
SIZE 4 4 4 4
TYPE F F F U
COUNT 1 1 1 1
WIDTH 1094
HEIGHT 1
VIEWPOINT 0 0 0 1 0 0 0
POINTS 1094
DATA ascii
0.30425322 0.34131539 0.15209387 4281548350
0.30452237 0.33967996 0.15200824 4281548350
0.3052938 0.33772442 0.15100464 4281482557
0.23054434 0.77994937 0.17434575 4294901753
0.23120567 0.77864897 0.17337538 4294901753
0.23246366 0.77100557 0.17297517 4294901753
0.23273323 0.76936775 0.17288941 4294901753
0.23852965 0.73143166 0.17180529 4284769125
0.23888855 0.72925109 0.1716911 4284769125
0.23915771 0.72761565 0.17160547 4284900709
0.23942688 0.72598022 0.17151985 4285097831
0.23978576 0.72379965 0.17140566 4285229163
0.24034759 0.72174484 0.17084697 4285755511
0.24050355 0.71943849 0.17117731 4289110440
0.24077271 0.71780306 0.17109168 4294966527
0.24104188 0.71616763 0.17100604 4294901755
0.26347253 0.57988197 0.16386993 4294639612
0.26383144 0.57770139 0.16375576 4294639611
0.26419032 0.57552081 0.16364157 4294639611
0.26445949 0.57388544 0.16355595 4294639611
0.27639261 0.5013814 0.15975954 4281414709
0.27675152 0.49920085 0.15964536 4281480502
0.27734095 0.4969781 0.15907787 4281414709
0.27793086 0.49475291 0.15851019 4281414709
0.27820045 0.49311507 0.15842444 4281480502
0.27847001 0.49147722 0.15833867 4281546295
0.27882946 0.48929337 0.15822431 4281414709
0.28440052 0.45544422 0.15645194 4281086257
0.28467008 0.45380637 0.15636617 4280954928
0.28493965 0.45216849 0.15628041 4280954928
0.28529909 0.4499847 0.15616606 4281020721
0.28565851 0.44780087 0.15605171 4281086516
0.2906006 0.4177734 0.15447943 4281086514
0.29087016 0.41613555 0.15439367 4281020721
0.29074821 0.41415861 0.15519243 4281020721
0.29101738 0.41252315 0.1551068 4281086514
0.29442686 0.39180773 0.1540221 4281218361
0.2946063 0.39071745 0.15396501 4281152568
0.29487544 0.38908201 0.15387939 4281087029
0.29523435 0.38690147 0.1537652 4280823857
0.29559326 0.38472089 0.15365103 4280955443
0.2963514 0.38283235 0.15264988 4281021236
0.29662094 0.38119453 0.15256411 4280955443
0.29868764 0.36863756 0.15190661 4280889650
0.2987107 0.36713839 0.15227927 4281218615
0.29882327 0.36509576 0.15262343 4281284408
0.29918215 0.36291516 0.15250926 4281415994
0.30391863 0.3354958 0.15062243 4281482557
0.30443844 0.33369651 0.15007706 4281350971
0.30551669 0.32714507 0.14973401 4281482557
0.30578628 0.32550722 0.14964825 4281482557
0.30605587 0.32386935 0.14956249 4281482557
0.30677468 0.3195017 0.14933379 4281482557
0.30704427 0.31786388 0.14924803 4281285178
0.30740368 0.31568006 0.14913368 4281350971
0.30776313 0.31349623 0.14901933 4281350971
0.22955623 0.7798121 0.17386147 4294901753
0.22972658 0.77853584 0.17303362 4294901753
0.22921154 0.77711517 0.17279138 4294901753
0.22976567 0.77509826 0.17223389 4294901753
0.2301251 0.77291447 0.17211954 4294901753
0.23078376 0.77063775 0.17269105 4294901753
0.23174366 0.76923025 0.17240442 4294901753
0.27724323 0.48700181 0.15829098 4281414709
0.27760214 0.48482123 0.15817681 4281283125
0.27787128 0.48318583 0.15809117 4281217332
0.27860308 0.48144382 0.15709662 4281151538
0.27887261 0.47980595 0.15701087 4281348916
0.28192773 0.46124351 0.15603891 4281019953
0.2821973 0.45960566 0.15595315 4281019953
0.28208828 0.45756412 0.15674959 4281151537
0.28235742 0.45592868 0.15666395 4281085744
0.28370327 0.44775152 0.15623578 4281020721
0.28429788 0.44549051 0.15566576 4281348917
0.28480312 0.443773 0.15512413 4281348917
0.28498286 0.44268107 0.15506695 4281283124
0.28875679 0.41975102 0.15386631 4281152309
0.28878725 0.41821387 0.15423751 4281020723
0.29339328 0.38887611 0.15315299 4281152309
0.29375219 0.38669556 0.15303881 4280954930
0.2941111 0.38451499 0.15292464 4281086516
0.29446995 0.38233441 0.15281045 4281086772
0.29473916 0.38069898 0.15272482 4281087029
0.29549602 0.37880448 0.1517223 4281152822
0.29585543 0.37662065 0.15160795 4281021236
0.29621488 0.37443683 0.15149359 4281020979
0.29648444 0.37279898 0.15140784 4280955186
0.296754 0.37116113 0.15132208 4281217589
0.29686829 0.36911455 0.15166661 4281086259
0.2969822 0.36707041 0.15201122 4281284151
0.29725137 0.365435 0.15192558 4281218615
0.30227584 0.334907 0.15032709 4281285181
0.30279455 0.33310756 0.14978118 4281416766
0.30331349 0.33130649 0.14923523 4281482302
0.30358306 0.32966861 0.14914946 4281548350
0.3039425 0.32748479 0.14903513 4281350971
0.30430192 0.32530099 0.14892077 4281416764
0.30416003 0.32345897 0.14972766 4281416764
0.30451891 0.32127845 0.14961348 4281416764
0.30514696 0.31746244 0.14941368 4281219898
0.30541614 0.31582698 0.14932804 4281285691
0.30577502 0.31364641 0.14921385 4281219642
0.30613393 0.31146589 0.14909968 4281219642
0.30640307 0.30983043 0.14901404 4281219898
0.30717731 0.30783048 0.14800599 4281417277
0.30753675 0.30564669 0.14789164 4281351230
0.30789617 0.30346286 0.1477773 4281745988
0.30951357 0.29363564 0.14726274 4281154362
0.30978313 0.29199779 0.14717697 4281220155
0.31041211 0.28817615 0.14697686 4281613630
0.31077155 0.28599229 0.14686252 4281613373
0.22816263 0.77292717 0.17230828 4292728787
0.27710691 0.47861877 0.15713643 4281283895
0.27737609 0.47698334 0.15705079 4281218102
0.27819696 0.47468615 0.15602611 4281217589
0.27783099 0.47249404 0.15612502 4281151538
0.2782824 0.47122344 0.15598722 4281151537
0.27836981 0.46922034 0.15595354 4281217330
0.27872896 0.46703812 0.15583928 4281283123
0.27930033 0.46503869 0.15566337 4281151537
0.27994126 0.46274281 0.15585297 4281085744
0.27997804 0.46117419 0.156223 4281151539
0.28024721 0.45953876 0.15613736 4281085746
0.28338751 0.4404588 0.15513831 4281217332
0.28356695 0.43936849 0.15508123 4281218102
0.28407171 0.43764675 0.1545389 4281218359
0.2846666 0.43537748 0.15396786 4281218615
0.28429583 0.43321455 0.15406829 4281350201
0.28392467 0.43105409 0.1541688 4281218359
0.28419384 0.42941865 0.15408316 4281349688
0.28446302 0.42778325 0.15399753 4281218102
0.28482193 0.42560264 0.15388335 4281283895
0.28509107 0.42396724 0.15379772 4281218102
0.28682315 0.42227456 0.15328176 4281086516
0.28694484 0.42019004 0.15362485 4281152054
0.28697643 0.41865307 0.15399654 4281086262
0.29388505 0.3766771 0.15179862 4281283895
0.29424396 0.37449649 0.15168443 4281020723
0.29460281 0.37231591 0.15157026 4281086259
0.29487199 0.37068051 0.15148462 4281348918
0.30115259 0.33252051 0.14948653 4281482303
0.30142173 0.33088508 0.14940089 4281416765
0.30178064 0.32870451 0.1492867 4281482557
0.30510035 0.30853426 0.14823057 4281285437
0.30527982 0.30744395 0.14817347 4281417023
0.30554897 0.30580854 0.14808784 4281482816
0.30615988 0.30344188 0.14751175 4282272586
0.30574626 0.30141297 0.14723814 4281877063
0.30629423 0.29955521 0.14706969 4281745476
0.30684251 0.29769608 0.14690109 4281613890
0.3071419 0.29587683 0.14680582 4281548352
0.30756098 0.29333061 0.1466725 4281219642
0.30736205 0.29159558 0.14672408 4281285435
0.30791044 0.28973535 0.14655551 4281351227
0.3084591 0.28787377 0.14638677 4281679166
0.30853903 0.28591609 0.14635554 4281612860
0.27620736 0.47180253 0.15582536 4281217330
0.2763868 0.47071221 0.15576828 4281348916
0.276656 0.46907678 0.15568264 4281283123
0.27701488 0.46689621 0.15556847 4281348916
0.27728403 0.4652608 0.15548283 4281217330
0.28266743 0.43255222 0.15377016 4281350201
0.28293657 0.43091682 0.15368454 4281284151
0.28320575 0.42928138 0.1535989 4281349688
0.28347489 0.42764598 0.15351327 4281218102
0.2838338 0.42546535 0.15339909 4281283895
0.28410295 0.42382994 0.15331346 4281217848
0.30429056 0.30117285 0.14689097 4281614404
0.30464944 0.29899225 0.14677678 4281548611
0.30491862 0.29735684 0.14669114 4281482303
0.30509806 0.29626656 0.14663406 4281548096
0.30563641 0.29299569 0.1464628 4281350971
0.30590555 0.29136029 0.14637716 4281416764
0.30626446 0.28917971 0.14626299 4281613886
0.30653363 0.28754428 0.14617735 4281679166
0.30680278 0.28590885 0.14609171 4281481787
0.23411243 0.64773452 0.15883543 4284572005
0.23438159 0.64609909 0.1587498 4284440419
0.23474048 0.64391851 0.15863562 4284374624
0.23500967 0.64228308 0.15854998 4284308831
0.23263028 0.64752859 0.15810904 4284505957
0.23289943 0.64589316 0.1580234 4284374626
0.26192415 0.4664726 0.14839016 4281020719
0.26219329 0.46483716 0.14830452 4280954926
0.2625522 0.46265659 0.14819035 4281151535
0.26282135 0.46102116 0.14810471 4281085742
0.23114809 0.64732271 0.15738264 4284439908
0.23141727 0.64568728 0.15729702 4284374369
0.26044196 0.46626666 0.14766376 4281086255
0.26092952 0.46456495 0.14711592 4281151792
0.25880921 0.46640837 0.14579807 4281283121
0.2590788 0.4647705 0.14571232 4281217328
0.25732487 0.46620214 0.1450706 4281283121
0.25759444 0.46456429 0.14498484 4281348914
0.28191334 0.77199233 0.19533157 4294704120
0.28159779 0.77082998 0.19503146 4294967038
0.28042677 0.7717858 0.19460303 4287662736
0.28060675 0.77069229 0.19454576 4288254873
0.27276722 0.76289201 0.18983087 4283848280
0.26997405 0.76138538 0.18831649 4283716694
0.27015403 0.76029187 0.18825924 4283650901
0.26943064 0.76155645 0.18696883 4283650901
0.26961088 0.76046127 0.18691149 4283650901
0.26749644 0.76104122 0.18710224 4283782230
0.26767641 0.75994766 0.18704498 4283650644
0.26551431 0.76076585 0.18613084 4283913814
0.26569432 0.75967234 0.18607357 4283650642
0.26353225 0.76049048 0.18515943 4283913814
0.26371223 0.75939697 0.18510216 4283848021
0.26249564 0.75755012 0.18428771 4283848021
0.26248854 0.75599134 0.18352497 4283716435
0.28589293 0.61539119 0.17684408 4294770683
0.26137897 0.75505149 0.18306457 4283913814
0.26163897 0.75351626 0.18335876 4284045401
0.28440636 0.61518472 0.17611553 4294770686
0.24801418 0.826913 0.18535933 4281415481
0.24819444 0.82581782 0.18530199 4281349688
0.24804823 0.82377362 0.18608055 4281481274
0.2484082 0.82158655 0.18596601 4281349687
0.24876815 0.81939948 0.1858515 4281415736
0.24933724 0.81740791 0.18530445 4281349944
0.26040673 0.75470185 0.18181786 4284767842
0.26045966 0.75291145 0.18216676 4284766559
0.2603237 0.75065345 0.18180892 4292070093
0.25988129 0.74879795 0.18191546 4294900477
0.26015124 0.74715763 0.18182957 4286412938
0.26051122 0.74497056 0.18171506 4285096839
0.28165877 0.61648077 0.17498715 4294770687
0.2453723 0.82917088 0.18496269 4281349688
0.24543622 0.82732558 0.18530953 4281480504
0.24570617 0.82568532 0.18522365 4281480504
0.24597614 0.824045 0.18513776 4281546297
0.24732599 0.81584352 0.18470831 4281350201
0.24759597 0.81420326 0.18462244 4281283895
0.25905254 0.75059301 0.1806443 4293386975
0.25889024 0.74866027 0.18142976 4294835711
0.25916022 0.74702001 0.18134387 4288190117
0.25924075 0.74490613 0.18055023 4284702846
0.25888908 0.74250817 0.18062913 4284702849
0.25915906 0.74086785 0.18054324 4286610332
0.2801722 0.61627424 0.17425859 4294770687
0.29086486 0.55113739 0.16972134 4281678651
0.29113525 0.54949462 0.16963531 4281679164
0.29140559 0.54785192 0.1695493 4281613371
0.29176611 0.54566163 0.16943461 4281547578
0.21840352 0.97906631 0.19116987 4281415482
0.21876401 0.97687602 0.19105518 4281415740
0.21912448 0.97468573 0.1909405 4281481533
0.21939486 0.97304291 0.19085447 4281415740
0.21966524 0.9714002 0.19076847 4281416512
0.24192564 0.83614886 0.18368651 4281677881
0.24169873 0.83463609 0.18449609 4281677881
0.24196871 0.83299583 0.1844102 4281546297
0.2428242 0.8308776 0.18453853 4281415481
0.24358968 0.82930613 0.1846955 4281415481
0.24628936 0.81290323 0.18383662 4281020723
0.24606383 0.81119406 0.18350787 4280756781
0.2579231 0.74203467 0.17899817 4283255136
0.2579779 0.74025369 0.17934915 4283189087
0.27865145 0.61609215 0.17240365 4294770687
0.28788847 0.55688494 0.16906387 4281545776
0.28768346 0.55523914 0.16986647 4281545776
0.28804341 0.55305207 0.16975196 4281875260
0.28913787 0.55093229 0.16943614 4281678652
0.289408 0.54929072 0.16935025 4281613116
0.28967819 0.5476492 0.16926429 4281613115
0.29003841 0.54546052 0.1691497 4281613116
0.28990245 0.54320252 0.16879186 4281612859
0.29041192 0.54155278 0.16826105 4281678651
0.21578762 0.98262358 0.19039772 4281481274
0.21605799 0.98098087 0.19031172 4281481274
0.21741098 0.97892839 0.19068344 4281415482
0.21777147 0.97673815 0.19056876 4281415740
0.21813196 0.9745478 0.19045408 4281613119
0.21840233 0.97290504 0.19036806 4281349947
0.21867271 0.97126234 0.19028203 4281415740
0.2181308 0.96838659 0.18965226 4281481787
0.21840118 0.96674389 0.18956624 4281677883
0.21876167 0.96455353 0.18945156 4281677111
0.22173575 0.94648349 0.18850538 4281480504
0.22362833 0.93498439 0.18790327 4281545782
0.23958012 0.83806342 0.18282835 4281742904
0.24034674 0.83648962 0.18298554 4281743161
0.2407077 0.83449847 0.18401039 4281677881
0.24097767 0.83285815 0.1839245 4281612088
0.24133763 0.83067107 0.18380998 4281546297
0.24466723 0.81044078 0.18275069 4280428586
0.25629854 0.73956859 0.17791063 4284505698
0.25654587 0.73826778 0.1789716 4283189841
0.25681585 0.73662746 0.17888573 4283058257
0.2766664 0.61581635 0.1714308 4294770687
0.2860392 0.55886841 0.16844893 4281742898
0.28628713 0.55742943 0.16874991 4281611569
0.28876218 0.54252583 0.16872229 4281678651
0.28903213 0.54088557 0.16863641 4281612858
0.28930211 0.53924525 0.16855052 4281481272
0.28946388 0.53806049 0.16735938 4281678651
0.21425436 0.98577118 0.19008332 4281349434
0.2145247 0.98412842 0.18999732 4281415481
0.2144284 0.98184967 0.19076891 4281481274
0.21469837 0.98020935 0.19068302 4281481274
0.21555384 0.97809112 0.19081135 4281415738
0.21582381 0.97645086 0.19072546 4281547325
0.21658929 0.97487938 0.19088243 4281481533
0.21664891 0.9724642 0.19059646 4281284410
0.2168137 0.97043639 0.19041054 4281415994
0.21697846 0.9684087 0.19022462 4281481787
0.21694811 0.96654022 0.18996729 4281677883
0.21721807 0.96489996 0.1898814 4281677625
0.21776377 0.96301627 0.18933734 4281677111
0.21830991 0.9611302 0.18879309 4281545525
0.2186704 0.95893991 0.18867841 4281545782
0.21903089 0.95674956 0.18856372 4281348917
0.21939138 0.95455927 0.18844904 4281348918
0.21966174 0.95291656 0.18836302 4281480504
0.21955779 0.95068407 0.18913703 4281480504
0.21991774 0.948497 0.18902251 4281480504
0.22018772 0.94685668 0.18893662 4281414711
0.22081804 0.94508004 0.1890031 4281480761
0.22144835 0.94330335 0.18906957 4281480761
0.22216865 0.94097996 0.1891074 4281480503
0.22252862 0.93879288 0.18899289 4281612088
0.2227986 0.93715262 0.188907 4281546295
0.22237788 0.93560278 0.18850686 4281480502
0.22243746 0.93318754 0.18822089 4281414709
0.22317654 0.93156105 0.18724482 4281480502
0.22353703 0.92937076 0.18713012 4281349686
0.23822713 0.84011585 0.18245661 4281808699
0.23829651 0.8382622 0.18280503 4281742905
0.23836565 0.83641016 0.1831535 4281808697
0.23926631 0.83504391 0.18340094 4281808697
0.23989661 0.83326721 0.18346742 4281612088
0.2436762 0.81030309 0.18226498 4280493607
0.24336414 0.80890399 0.18082233 4280689959
0.25523838 0.73785609 0.1775586 4285229928
0.25552443 0.73626167 0.17822857 4284769379
0.25519368 0.73416507 0.17779979 4284505951
0.25555366 0.731978 0.17768528 4284045402
0.25717348 0.72213626 0.17716995 4282992715
0.25753343 0.71994919 0.17705543 4283583315
0.28437018 0.55975676 0.16777663 4281808691
0.28408039 0.55865347 0.16860977 4281874484
0.28484586 0.557082 0.16876674 4281677362
0.28777114 0.5423882 0.16823658 4281547067
0.28774074 0.54051971 0.16797926 4281612603
0.28781551 0.53903872 0.16782196 4281546809
0.28782764 0.53731745 0.16704716 4281743676
0.28842574 0.53511584 0.1664864 4281612858
0.21267545 0.98611194 0.18938237 4281482045
0.21276426 0.98414928 0.1897258 4281284665
0.21271665 0.98198473 0.18997848 4281350458
0.21321179 0.98000288 0.18995446 4281415994
0.21406725 0.97788465 0.1900828 4281350201
0.21433723 0.97624433 0.18999691 4281613373
0.21505715 0.97187018 0.18976787 4281219385
0.21532713 0.97022992 0.18968199 4281285178
0.21568708 0.96804285 0.18956748 4281481787
0.21595706 0.96640253 0.18948159 4281677883
0.2157315 0.96469343 0.18915284 4281612090
0.21618395 0.96265799 0.18882337 4281611575
0.21663663 0.96062142 0.18849383 4281479989
0.21699688 0.95843267 0.18837918 4281414709
0.21755418 0.95654887 0.18821169 4281414709
0.21762732 0.95460212 0.18817866 4281283638
0.21770024 0.95265669 0.18814564 4281415224
0.21856675 0.95054638 0.18865132 4281480504
0.21892671 0.94835931 0.18853681 4281480504
0.21919669 0.94671905 0.18845092 4281480504
0.21946667 0.94507867 0.18836503 4281415224
0.21973661 0.94343841 0.18827915 4281349688
0.22108646 0.93523693 0.1878497 4281480502
0.22144642 0.93304986 0.18773519 4281480502
0.22149965 0.93107414 0.1869467 4281349688
0.22185989 0.92888546 0.1868321 4281349688
0.2219125 0.92690474 0.18604259 4281415481
0.22227299 0.92471439 0.18592791 4281612088
0.23552108 0.8442207 0.18171315 4281612090
0.23539364 0.8421492 0.18249701 4281677370
0.23624726 0.83996743 0.18224508 4281742906
0.23687768 0.8381902 0.18231152 4281742906
0.23737457 0.83627248 0.18266779 4281808697
0.23755458 0.83517891 0.18261053 4281742904
0.24167234 0.80850792 0.18052891 4280952361
0.24164946 0.8069855 0.17976345 4283057988
0.25386176 0.73586953 0.17627932 4285756273
0.25370714 0.73395854 0.17707124 4285756273
0.25406709 0.73177147 0.17695673 4285163881
0.25442708 0.7295844 0.17684221 4284505697
0.25469702 0.72794414 0.17675632 4284308317
0.25496697 0.72630382 0.17667043 4284045401
0.25532696 0.72411674 0.17655592 4283913814
0.25568691 0.72192973 0.1764414 4284045401
0.25604686 0.71974266 0.17632687 4285228651
0.25631684 0.71810234 0.176241 4294569975
0.27287492 0.61749756 0.17097318 4293783295
0.2730549 0.61640406 0.17091592 4294704895
0.28202465 0.56167126 0.16691846 4282269499
0.28250027 0.55988884 0.16728234 4281940534
0.28259382 0.55844694 0.16788121 4281874741
0.28277382 0.55735344 0.16782396 4281743155
0.286149 0.53992575 0.16715066 4281612088
0.28632897 0.53883225 0.16709341 4281677881
0.28645656 0.5369556 0.16653845 4281809467
0.28670055 0.53492254 0.1662036 4281743674
0.28680119 0.53264976 0.16539885 4281612088
0.21042039 0.98606288 0.18886828 4281679166
0.21064493 0.98430687 0.18930258 4281481787
0.21136525 0.98198336 0.18934043 4281481786
0.21172522 0.97979629 0.18922591 4281481786
0.21424492 0.96448696 0.18842429 4281678140
0.21460488 0.96229988 0.18830977 4281546296
0.21496485 0.96011275 0.18819524 4281414709
0.2153248 0.95792574 0.18808073 4281414709
0.21559478 0.95628542 0.18799484 4281480502
0.21586475 0.95464516 0.18790895 4281283895
0.21622472 0.95245808 0.18779443 4281415227
0.2198243 0.93058747 0.18664926 4281349688
0.22018425 0.9284004 0.18653475 4281349688
0.22091997 0.92676681 0.18555617 4281349688
0.2205068 0.9247793 0.18565939 4281480759
0.2200931 0.92279506 0.18576275 4281481272
0.22064091 0.9208802 0.18521564 4281415479
0.2331311 0.84948963 0.18127023 4281810239
0.23340146 0.84784687 0.1811842 4281678653
0.23327717 0.84577006 0.18196885 4281547067
0.23354714 0.84412974 0.18188296 4281546554
0.2339071 0.84194267 0.18176845 4281611834
0.24004866 0.80604321 0.17944203 4283387466
0.24052121 0.80458838 0.17891914 4283716686
0.24070142 0.8034932 0.17886178 4283782479
0.24800143 0.75913948 0.17653936 4294770681
0.24836192 0.75694919 0.17642468 4294770681
0.24863228 0.75530648 0.17633866 4294770681
0.24890266 0.75366378 0.17625265 4294770681
0.25237295 0.7356627 0.17554969 4286413948
0.25214708 0.73395097 0.17522046 4286282619
0.25250757 0.73176068 0.17510578 4285953398
0.25286806 0.72957039 0.17499109 4285886837
0.2530331 0.72753966 0.17480488 4285426285
0.25332117 0.72595435 0.17547698 4284966247
0.25355673 0.72396797 0.17514423 4284703332
0.25426516 0.72210979 0.17468031 4284374368
0.25449029 0.71971405 0.174475 4287400075
0.25433472 0.71782702 0.17526957 4294966524
0.2546047 0.7161867 0.1751837 4294901752
0.27089286 0.61722219 0.17000178 4293585142
0.27138832 0.61562783 0.16947156 4294440951
0.28008527 0.56420231 0.16633219 4283058761
0.27998179 0.56199896 0.1671102 4282664002
0.28025177 0.56035864 0.16702431 4282269244
0.28484124 0.53247362 0.16556422 4281612088
0.28520119 0.53028655 0.16544971 4281546295
0.28594327 0.52860987 0.16446851 4281612088
0.28621364 0.52696717 0.1643825 4281546295
0.21905646 0.91985476 0.18489105 4281481273
0.21932644 0.91821444 0.18480515 4281678652
0.21959642 0.91657412 0.18471926 4281809725
0.22005381 0.91520184 0.18420003 4281547066
0.23078556 0.85140413 0.18041205 4281809984
0.23086046 0.84954214 0.18076199 4281810239
0.23102511 0.84713495 0.18108334 4281678653
0.23777431 0.80612755 0.17893614 4283256650
0.23804429 0.80448729 0.17885025 4283716944
0.23840424 0.80230021 0.17873573 4283848272
0.23876421 0.80011314 0.1786212 4283914322
0.23903418 0.79847288 0.17853533 4283980116
0.24502504 0.76488709 0.17588191 4294901753
0.24508935 0.76308918 0.1762352 4294901753
0.24524346 0.76074606 0.1765599 4294901753
0.24560341 0.75855905 0.17644538 4294836217
0.24587339 0.75691873 0.17635949 4294770681
0.24659331 0.75254458 0.17613046 4294770681
0.24686329 0.75090432 0.17604457 4291546059
0.24743128 0.74886239 0.17549044 4287137940
0.24770145 0.74722081 0.17540449 4285953665
0.24747542 0.74550998 0.17507531 4285296247
0.24804358 0.74346268 0.17452049 4284966767
0.24840407 0.74127233 0.1744058 4285032557
0.24876456 0.73908204 0.17429112 4285032556
0.24912505 0.73689175 0.17417642 4285229935
0.24989167 0.73531795 0.17433363 4285624692
0.25016204 0.73367524 0.17424761 4285887865
0.25052252 0.73148495 0.17413293 4286019450
0.25088304 0.7292946 0.17401823 4286150778
0.25124353 0.72710431 0.17390355 4285952886
0.2515139 0.7254616 0.17381753 4285690227
0.25178427 0.72381884 0.17373152 4285690484
0.25214478 0.72162855 0.17361683 4285492851
0.25250527 0.71943825 0.17350215 4289834674
0.25235265 0.71755165 0.17429817 4294966524
0.25262263 0.71591133 0.17421228 4294901752
0.26927069 0.6147598 0.16891585 4285556589
0.26976529 0.61316401 0.16838503 4286411124
0.2696293 0.610906 0.16802725 4284965221
0.27012375 0.60930645 0.16749589 4285032047
0.27111509 0.60328311 0.16718049 4286870911
0.27147558 0.60109282 0.16706581 4287660683
0.27183607 0.59890252 0.16695112 4288451741
0.27210647 0.59725976 0.16686511 4289768373
0.27724349 0.56604797 0.16523081 4284698716
0.27787036 0.56391865 0.16580653 4284239705
0.2779097 0.56227034 0.16616742 4283647568
0.28398457 0.52843976 0.16463526 4281612088
0.28425455 0.52679944 0.16454937 4281612088
0.28461453 0.52461237 0.16443485 4281480502
0.28483129 0.52218169 0.16384995 4281283123
0.28507486 0.520145 0.16351448 4281217330
0.28461337 0.51846027 0.16363423 4281151537
0.28488332 0.51682001 0.16354834 4281283123
0.28571507 0.51457578 0.16253565 4281414709
0.28598544 0.51293302 0.16244964 4281414709
0.21873978 0.91254026 0.18379031 4281612090
0.21928661 0.91061777 0.18324172 4281612860
0.21974374 0.90924042 0.18272164 4281809469
0.22226718 0.89390826 0.18191883 4281875262
0.22244741 0.89281315 0.18186149 4281612090
0.22271779 0.89117038 0.18177547 4281612090
0.22307828 0.88898009 0.18166079 4281809469
0.22296929 0.88684231 0.18244472 4281875262
0.22323924 0.88520199 0.18235883 4281677883
0.22378941 0.88325924 0.1818092 4281612090
0.22434001 0.88131398 0.18125938 4281546554
0.22431912 0.87864083 0.18201528 4281546812
0.22506101 0.8769334 0.18103001 4281744192
0.22533138 0.87529069 0.18094398 4281744192
0.22866592 0.85503036 0.17988312 4281612860
0.22893628 0.85338765 0.17979711 4281678653
0.22881861 0.85130256 0.18058382 4281678653
0.22908859 0.84966224 0.18049793 4281744446
0.23736764 0.79935986 0.17786403 4283980117
0.23783824 0.79790056 0.1773397 4283980117
0.23839924 0.79589212 0.17678657 4284045910
0.23866959 0.79424936 0.17670055 4284111703
0.24294698 0.76546043 0.176089 4294901753
0.24573667 0.74851072 0.17520149 4286875280
0.24600665 0.74687046 0.1751156 4285822590
0.24648362 0.74537218 0.17458925 4285230453
0.24705105 0.74332476 0.17403407 4284900974
0.24741156 0.74113446 0.17391938 4284966508
0.24777205 0.73894417 0.1738047 4284966763
0.24813254 0.73675388 0.17369001 4285098349
0.24840291 0.73511112 0.173604 4285229935
0.24867329 0.73346841 0.17351797 4285427314
0.24903378 0.73127812 0.17340329 4285822072
0.24939427 0.72908777 0.1732886 4285953656
0.24975474 0.72689748 0.17317392 4285822070
0.25002512 0.72525477 0.17308789 4285822070
0.25029549 0.72361201 0.17300189 4285887863
0.25065598 0.72142172 0.17288719 4286018937
0.25101647 0.71923143 0.17277251 4291084995
0.25086609 0.71734512 0.17356962 4294967291
0.25113603 0.7157048 0.17348373 4294901755
0.26238474 0.64735919 0.16990505 4294901755
0.26256475 0.64626563 0.1698478 4294901755
0.26274469 0.64517212 0.16979054 4294901755
0.26778412 0.61455327 0.16818729 4284571748
0.2680541 0.61291295 0.1681014 4284637541
0.26863751 0.6107682 0.16754119 4284834920
0.26913121 0.60916859 0.16700946 4284900713
0.27012259 0.60314524 0.16669407 4284834408
0.27048311 0.60095495 0.16657938 4285228653
0.27084357 0.59876466 0.1664647 4285162863
0.27111396 0.59712189 0.16637868 4285426037
0.27625096 0.56591004 0.16474439 4292859350
0.27615318 0.56370413 0.16552477 4290818231
0.27642313 0.56206381 0.16543888 4289437350
0.28308237 0.52160323 0.1633203 4281348916
0.28335235 0.51996291 0.16323441 4281217330
0.28362229 0.51832259 0.16314852 4281151537
0.28389227 0.51668233 0.16306263 4281283125
0.28472254 0.51443785 0.16204923 4281414711
0.2849929 0.51279515 0.16196321 4281348916
0.21824309 0.90631932 0.18274683 4281677883
0.21851304 0.90467906 0.18266094 4281677882
0.21887302 0.90249199 0.18254642 4281875261
0.21923299 0.90030491 0.18243191 4281743674
0.21959294 0.89811784 0.18231739 4281546553
0.21986289 0.89647758 0.1822315 4281743933
0.22032051 0.89509034 0.18171041 4281744189
0.22049282 0.89265019 0.1820311 4281678140
0.22085279 0.89046317 0.18191658 4281612090
0.22121274 0.88827604 0.18180205 4281743676
0.22148272 0.88663578 0.18171617 4281809469
0.2217527 0.88499546 0.18163028 4281677882
0.22211266 0.88280845 0.18151577 4281612089
0.22247262 0.88062137 0.18140124 4281546296
0.22283258 0.8784343 0.18128672 4281612090
0.22310252 0.87679404 0.18120085 4281809469
0.22358927 0.87476534 0.18079565 4281744190
0.22420308 0.87289357 0.18009967 4281744446
0.22681667 0.85701382 0.17926818 4281744444
0.22670211 0.85492343 0.18005566 4281612858
0.22697209 0.85328311 0.17996977 4281612860
0.23624103 0.79696631 0.17702095 4284111446
0.23642099 0.79587275 0.17696369 4284177239
0.23669097 0.79423249 0.1768778 4284177239
0.23705092 0.79204541 0.17676328 4284374618
0.23761135 0.79003352 0.17620949 4284440413
0.23817217 0.78801918 0.17565553 4284833633
0.23844256 0.78637648 0.1755695 4290095014
0.24110045 0.76744097 0.17547496 4294901753
0.24128044 0.76634747 0.17541771 4294901753
0.24434008 0.74775743 0.1744443 4286414729
0.24452007 0.74666393 0.17438705 4285756797
0.24479005 0.74502361 0.17430116 4285230452
0.24515 0.74283653 0.17418665 4284769899
0.24550997 0.74064952 0.17407212 4284835177
0.24586992 0.73846245 0.1739576 4284835176
0.24613987 0.73682213 0.17387171 4284835176
0.24640985 0.73518187 0.17378584 4284900969
0.2467698 0.73299479 0.17367131 4285098348
0.24712977 0.73080772 0.17355679 4285493105
0.24748972 0.72862065 0.17344227 4285822070
0.2477597 0.72698039 0.17335638 4285887863
0.24802968 0.72534007 0.17327049 4285822070
0.24838963 0.723153 0.17315598 4286019192
0.2487496 0.72096598 0.17304146 4286478716
0.24910955 0.71877891 0.17292695 4292334546
0.2493795 0.71713859 0.17284106 4294967289
0.2600427 0.64927089 0.16904816 4294901755
0.26067302 0.6474942 0.16911463 4294901755
0.26107818 0.64605916 0.16911924 4294901755
0.26125816 0.64496559 0.16906197 4294901755
0.26656753 0.61270648 0.16737285 4283914074
0.26692748 0.61051941 0.16725832 4284111453
0.26728743 0.60833234 0.16714381 4284177246
0.26755741 0.60669202 0.16705792 4284111453
0.26782739 0.60505176 0.16697204 4284177246
0.26818734 0.60286468 0.16685751 4284177246
0.26854733 0.60067761 0.166743 4284243039
0.26890728 0.59849054 0.16662848 4284243297
0.26917726 0.59685028 0.16654259 4284243298
0.26989555 0.59527236 0.16556303 4284309091
0.27025604 0.59308201 0.16544834 4284506472
0.2706165 0.59089172 0.16533366 4284637548
0.27449182 0.56734598 0.16410077 4294770426
0.27430665 0.56568468 0.16491072 4294770426
0.2751621 0.56356645 0.16503906 4294835964
0.28299123 0.51599789 0.1625483 4281217330
0.28326121 0.51435757 0.16246241 4281414711
0.283243 0.51208627 0.16188011 4281283124
0.28372052 0.50988257 0.16154058 4281217331
0.28372887 0.50813878 0.16076098 4281414709
0.28399923 0.50649607 0.16067497 4281348916
0.2842696 0.50485331 0.16058896 4281348916
0.29932019 0.41340804 0.15580076 4280889650
0.29968068 0.41121778 0.15568608 4281087029
0.29979458 0.40913463 0.15602568 4281021236
0.29981816 0.40760067 0.15639398 4280955441
0.30008808 0.40596041 0.15630808 4281152820
0.30044806 0.40377334 0.15619357 4281152820
0.30080801 0.40158629 0.15607905 4281152821
0.30116796 0.39939922 0.15596454 4281087029
0.30143794 0.39775893 0.15587865 4281152822
0.3024523 0.39607105 0.15558119 4281152822
0.30293667 0.39382309 0.15523922 4281152822
0.30342138 0.39157397 0.15489709 4281218615
0.30319548 0.38986227 0.15456787 4281152820
0.30321673 0.38834214 0.15493695 4281020977
0.30332771 0.38627687 0.15527743 4281086514
0.30393732 0.38396394 0.1547077 4281086514
0.30454734 0.38164863 0.15413779 4281086515
0.30788186 0.3613883 0.15307693 4281810498
0.30806214 0.36029315 0.15301959 4281876291
0.3083325 0.35865042 0.15293357 4282007877
0.30869299 0.35646009 0.15281889 4282074440
0.30905348 0.3542698 0.15270419 4282074440
0.30941397 0.35207954 0.15258951 4281877061
0.30952069 0.35004017 0.15293141 4281614656
0.30953702 0.34855005 0.153302 4281614656
0.31006101 0.34675714 0.15275951 4281548605
0.31016695 0.34472269 0.15310159 4281548348
0.31078163 0.34237894 0.15253025 4281482556
0.31130654 0.3405804 0.1519874 4281482557
0.31157693 0.33893767 0.15190139 4281285691
0.3118473 0.33729494 0.15181537 4281614143
0.22197594 0.87440044 0.18035777 4281875262
0.22224589 0.87276012 0.18027188 4281875262
0.22229972 0.8707397 0.17947786 4281875262
0.22265995 0.86855102 0.17936325 4281744446
0.22321869 0.86664492 0.17919348 4281810239
0.22329041 0.8647204 0.17916268 4281678653
0.22395569 0.86237156 0.17972791 4281678653
0.22422567 0.8607313 0.17964204 4281744445
0.22458562 0.85854423 0.17952751 4281810237
0.23493445 0.79566628 0.17623514 4284243032
0.23520438 0.79402596 0.17614925 4284243032
0.23556435 0.79183888 0.17603473 4284440411
0.2359243 0.78965181 0.1759202 4284571744
0.23628427 0.7874648 0.17580569 4285358694
0.23684412 0.7854495 0.17525119 4294044646
0.23603246 0.78421736 0.17470783 4294901238
0.23659213 0.78219873 0.17415275 4294901752
0.23794396 0.77398509 0.17372267 4294901753
0.23821433 0.77234238 0.17363665 4294901753
0.23853326 0.76969427 0.17455621 4294901753
0.23893841 0.76825917 0.17456082 4294901753
0.24375342 0.74208325 0.17342946 4284835177
0.24402338 0.74044299 0.17334357 4284703591
0.24438335 0.73825592 0.17322905 4284703333
0.24465333 0.7366156 0.17314316 4284834918
0.24492326 0.73497534 0.17305727 4284769382
0.24528323 0.73278826 0.17294276 4284966759
0.24564318 0.73060119 0.17282824 4285295724
0.2457028 0.72818601 0.17254227 4285558896
0.24577762 0.72670501 0.17238498 4285756275
0.24604757 0.72506469 0.17229909 4285887861
0.24640752 0.72287762 0.17218457 4286216313
0.24690266 0.72089577 0.17216055 4286676351
0.24762298 0.71857238 0.17219839 4293584871
0.25941163 0.64694613 0.16844794 4294901755
0.25959158 0.64585263 0.16839068 4294901755
0.26544094 0.61031288 0.16652977 4283585106
0.26580089 0.60812581 0.16641526 4283716692
0.26607084 0.60648555 0.16632937 4283585106
0.26679075 0.6021114 0.16610034 4283650901
0.26697075 0.60101789 0.16604307 4283650901
0.26751068 0.59773725 0.16587129 4283520085
0.26769066 0.59664375 0.16581404 4283520085
0.26796064 0.59500343 0.16572815 4283520085
0.26832062 0.59281641 0.16561364 4283914075
0.26838019 0.59040117 0.16532767 4284440169
0.26876885 0.58839959 0.16469413 4285229951
0.26831943 0.58666432 0.16481301 4290032572
0.26903647 0.58507127 0.16383088 4294901501
0.26939696 0.58288097 0.16371618 4294901755
0.27128908 0.56862104 0.16386823 4294770683
0.27228105 0.56705993 0.16357677 4294770683
0.27232456 0.5654093 0.16393931 4294770683
0.28133869 0.51166701 0.16120504 4281086515
0.2815035 0.50963926 0.16101912 4281217845
0.28182405 0.50758916 0.1605327 4281415480
0.2827059 0.50612968 0.16001685 4281349687
0.28278083 0.50464648 0.15985933 4281349686
0.29706478 0.41477501 0.15491392 4280955189
0.29783139 0.41320121 0.15507112 4280955443
0.29794714 0.41111627 0.15541129 4281087029
0.29818445 0.40898123 0.15552403 4281086516
0.29833156 0.40739417 0.15566543 4281020721
0.29860154 0.40575388 0.15557954 4281086514
0.29896149 0.40356684 0.15546502 4281086515
0.29932147 0.40137973 0.15535049 4281086773
0.29968143 0.39919269 0.15523598 4280955443
0.29995137 0.3975524 0.15515009 4281087029
0.30022135 0.39591208 0.1550642 4281218361
0.30070516 0.39366573 0.15472209 4281152567
0.30118918 0.39141816 0.15437986 4281152822
0.30127144 0.38942951 0.15434569 4281020979
0.30184186 0.38801685 0.15443122 4281020977
0.30184117 0.38607031 0.15454887 4281086514
0.30232558 0.3838203 0.15420657 4281020722
0.30281016 0.38156906 0.1538642 4281020723
0.3024255 0.37944034 0.15396248 4281020978
0.30269548 0.37780005 0.15387659 4281021234
0.30346352 0.37589711 0.15287822 4280955441
0.30382401 0.37370679 0.15276353 4280955443
0.3041845 0.37151647 0.15264885 4281218615
0.30445486 0.36987376 0.15256283 4281218615
0.30472526 0.36823106 0.15247682 4281284153
0.30508575 0.36604071 0.15236212 4281284154
0.30519566 0.36399105 0.15270419 4281613119
0.30583325 0.36171266 0.15289441 4281810240
0.30613327 0.3598896 0.15279895 4282007618
0.30687165 0.3583805 0.15258011 4282139460
0.30695277 0.35639924 0.15254623 4282205511
0.307313 0.35421053 0.15243162 4282205256
0.30767322 0.35202184 0.15231708 4281942854
0.30790693 0.34990868 0.15243091 4281679937
0.30805045 0.34834352 0.15257345 4281679936
0.30844706 0.34662688 0.15225907 4281614142
0.30868039 0.34451616 0.15237305 4281614141
0.3091673 0.34225073 0.15202993 4281482556
0.30937454 0.34019631 0.15176778 4281482558
0.30992457 0.33834296 0.15160082 4281482303
0.31044865 0.33654055 0.15105706 4281613889
0.3103129 0.33428136 0.15069917 4281548609
0.22062376 0.87029773 0.17918596 4281809469
0.22098371 0.86811066 0.17907143 4281678653
0.22125369 0.8664704 0.17898555 4281744446
0.22152364 0.86483008 0.17889966 4281744446
0.23467413 0.78379452 0.17419723 4294901495
0.23490529 0.78182244 0.17386433 4294901752
0.23457098 0.77939701 0.17394777 4294901753
0.23532806 0.77754235 0.17295052 4294901753
0.23568858 0.77535206 0.17283583 4294901753
0.2364552 0.77377826 0.17299302 4294901753
0.23652634 0.77197337 0.17334856 4294901753
0.23682149 0.76982927 0.17376579 4294901753
0.23745184 0.76805264 0.17383225 4294901753
0.24411105 0.72759199 0.17171368 4285427053
0.24429104 0.72649848 0.17165643 4285624432
0.24456102 0.72485816 0.17157054 4285887604
0.24492098 0.72267115 0.17145601 4286150777
0.24519092 0.72103083 0.17137013 4286479743
0.26678845 0.58980721 0.16449907 4284505962
0.2670584 0.58816689 0.16441318 4285033340
0.26732838 0.58652663 0.16432729 4290822090
0.26732567 0.58484101 0.16355005 4294835965
0.26768586 0.58265233 0.1634355 4294901755
0.2675499 0.58039427 0.16307767 4294901755
0.26804277 0.57877213 0.16254263 4294901755
0.26858708 0.57271981 0.16312586 4294770683
0.26894704 0.57053274 0.16301134 4294770683
0.26980254 0.56841451 0.16313969 4294770683
0.27056801 0.56684309 0.16329664 4294770683
0.27083799 0.56520277 0.16321075 4294770683
0.27974695 0.51107299 0.16037644 4281086514
0.28001693 0.50943273 0.16029055 4281414711
0.27988139 0.50717682 0.15993319 4281612603
0.2803838 0.50550127 0.15939577 4281415223
0.28038117 0.50403148 0.15938896 4281415223
0.28075016 0.50156391 0.1584999 4281283894
0.28111064 0.49937358 0.15838522 4281218100
0.28138101 0.49773085 0.15829919 4281218100
0.28823036 0.45611504 0.15612014 4280889137
0.28850073 0.45447233 0.15603413 4280889137
0.2883848 0.45243147 0.15682739 4280954930
0.28898332 0.45016766 0.15625882 4281020723
0.2894921 0.44844899 0.15571873 4281020721
0.28976247 0.44680628 0.15563272 4281349686
0.29466608 0.41723529 0.15484394 4281020723
0.29499963 0.41532028 0.15512346 4281020979
0.29535961 0.41313323 0.15500893 4281152565
0.29562956 0.41149291 0.15492305 4281152566
0.29868922 0.39290291 0.15394965 4281283898
0.2989592 0.39126262 0.15386376 4281152822
0.29931915 0.38907555 0.15374924 4281021236
0.29958913 0.38743526 0.15366335 4281020979
0.29985908 0.38579497 0.15357746 4280955187
0.30021903 0.38360792 0.15346295 4281020980
0.30057898 0.38142085 0.15334843 4281086517
0.30093893 0.37923381 0.15323392 4281086772
0.30120891 0.37759349 0.15314803 4281020980
0.30147889 0.3759532 0.15306213 4280889650
0.30183885 0.37376612 0.15294762 4280955443
0.3021988 0.37157911 0.1528331 4281218615
0.30255878 0.36939201 0.15271859 4281152822
0.30282876 0.36775172 0.1526327 4281284154
0.30309868 0.3661114 0.15254681 4281284154
0.30345866 0.36392438 0.15243229 4281547070
0.30381861 0.36173731 0.15231778 4281744448
0.30417857 0.35955024 0.15220326 4281941825
0.30777815 0.33767965 0.15105808 4281548095
0.30804813 0.33603933 0.15097219 4281548096
0.30831811 0.33439904 0.1508863 4281548096
0.30909446 0.33243176 0.14988351 4281284924
0.3092747 0.33133662 0.14982617 4281416510
0.31143767 0.31819475 0.14913803 4281417021
0.31170803 0.31655201 0.14905202 4281482557
0.31206852 0.31436175 0.14893734 4281548096
0.31233889 0.31271902 0.14885132 4281548096
0.31333029 0.30669561 0.14853592 4281614402
0.31369075 0.30450535 0.14842124 4281548609
0.31630433 0.28862563 0.14758976 4281285951
0.31657469 0.28698289 0.14750375 4281219901
0.31684506 0.28534019 0.14741772 4281219901
0.23308441 0.77919048 0.17321922 4294901753
0.23344436 0.77700347 0.17310469 4294901753
0.23371434 0.77536315 0.17301881 4294901753
0.23398432 0.77372289 0.17293292 4294901753
0.23434427 0.77153575 0.17281841 4294901753
0.26584068 0.58016801 0.16279812 4294770683
0.26620063 0.57798094 0.16268361 4294770683
0.26647058 0.57634068 0.16259772 4294770683
0.26674056 0.57470036 0.16251183 4294770683
0.27879918 0.50143379 0.15867549 4281414709
0.27915913 0.49924675 0.15856096 4281348916
0.27951908 0.4970597 0.15844645 4281348916
0.27978906 0.49541938 0.15836056 4281414709
0.28005901 0.49377912 0.15827468 4281414709
0.28041896 0.49159205 0.15816015 4281480502
0.28077894 0.48940501 0.15804563 4281218100
0.28151447 0.48766765 0.15705347 4281348917
0.2847589 0.4679549 0.15602128 4281348916
0.28502926 0.4663122 0.15593526 4281151537
0.28538975 0.46412188 0.15582058 4281217331
0.28575024 0.46193159 0.15570588 4280954673
0.28611076 0.45974126 0.1555912 4280889137
0.28599834 0.45769259 0.15638514 4281020722
0.28626832 0.45605233 0.15629925 4281086514
0.28653827 0.45441201 0.15621336 4280954928
0.28689823 0.45222494 0.15609884 4280954928
0.28725818 0.4500379 0.15598433 4281020723
0.28761816 0.44785085 0.15586981 4281152308
0.28788811 0.44621056 0.15578392 4281349173
0.28815809 0.44457024 0.15569803 4281217587
0.28899467 0.44221881 0.1546737 4281217844
0.28926507 0.44057611 0.15458769 4281218100
0.29268974 0.41976818 0.15349816 4281020723
0.29271877 0.41822588 0.15386803 4281020722
0.29274759 0.41668522 0.15423793 4281086515
0.29301754 0.41504493 0.15415205 4281020721
0.29823694 0.38333255 0.15249154 4281021237
0.29859689 0.38114551 0.15237702 4281087030
0.29895687 0.37895843 0.15226251 4281152822
0.29922682 0.37731814 0.15217662 4281021236
0.29949677 0.37567785 0.15209073 4280889650
0.29985675 0.37349078 0.15197621 4280889650
0.3002167 0.37130374 0.1518617 4281218615
0.30057666 0.36911663 0.15174718 4281020981
0.30084664 0.36747634 0.15166129 4281218361
0.30111662 0.36583605 0.1515754 4281284154
0.30606604 0.33576399 0.15000078 4281548350
0.30633599 0.3341237 0.14991489 4281416764
0.30669597 0.33193663 0.14980038 4281416764
0.30705592 0.32974955 0.14968586 4281548350
0.30741587 0.32756251 0.14957134 4281482557
0.30768585 0.32592222 0.14948545 4281417021
0.30795583 0.32428193 0.14939956 4281351484
0.30831578 0.32209486 0.14928505 4281285691
0.30867574 0.31990778 0.14917053 4281482813
0.30903569 0.31772077 0.14905602 4281351227
0.30930567 0.31608042 0.14897013 4281351228
0.30957562 0.31444013 0.14888424 4281482557
0.30993557 0.31225306 0.14876972 4281350972
0.31020555 0.31061277 0.14868383 4281219899
0.31098473 0.3086102 0.14767776 4281285693
0.31134525 0.30641988 0.14756308 4281417280
0.31170574 0.30422959 0.14744839 4281351744
0.3119761 0.30258685 0.14736238 4281154366
0.31296745 0.29656357 0.14704698 4281285951
0.31332794 0.29437318 0.1469323 4281154365
0.3135983 0.29273045 0.14684628 4281022779
0.31386867 0.29108775 0.14676027 4281154108
0.31422916 0.28889745 0.14664558 4281417023
0.31458965 0.28670716 0.1465309 4281351229
0.31486005 0.2850644 0.14644489 4281285435
0.23195782 0.77679694 0.17237614 4294901753
0.23222777 0.77515662 0.17229025 4294901753
0.23249775 0.77351636 0.17220436 4294901753
0.27965233 0.4870114 0.15720257 4281480502
0.27992231 0.48537111 0.15711668 4281348918
0.28019229 0.48373082 0.15703079 4281151539
0.28055224 0.48154375 0.15691628 4281283124
0.28091219 0.47935671 0.15680176 4281414710
0.28127214 0.47716963 0.15668724 4281283125
0.28154212 0.47552934 0.15660135 4281151539
0.28204536 0.47383064 0.15606129 4281348148
0.28217202 0.47170198 0.15640095 4281216560
0.28253198 0.46951494 0.15628642 4281282353
0.28289196 0.46732786 0.1561719 4281283123
0.28316191 0.46568757 0.15608601 4281151537
0.28343189 0.46404728 0.15600014 4281217331
0.28379187 0.46186021 0.15588562 4281019953
0.28415182 0.45967317 0.15577109 4281019953
0.28451177 0.45748609 0.15565658 4281151538
0.28640154 0.44600403 0.15505536 4281414709
0.28667152 0.44436371 0.15496947 4281348916
0.28703147 0.44217667 0.15485495 4281217843
0.28762898 0.43990523 0.15428491 4281218101
0.28813675 0.43817896 0.15374336 4281283895
0.28840712 0.43653622 0.15365735 4281152822
0.28867751 0.43489352 0.15357134 4281218615
0.29084048 0.42175165 0.1528832 4281218102
0.29087088 0.42020789 0.15325354 4281152309
0.29090104 0.4186658 0.15362389 4281086516
0.29747027 0.37875193 0.15153395 4281152822
0.29774025 0.37711164 0.15144806 4280955443
0.29801023 0.37547135 0.15136217 4280889650
0.29837018 0.37328425 0.15124765 4280955443
0.29873016 0.37109721 0.15113313 4281152822
0.29900008 0.36945692 0.15104724 4281021236
0.3052094 0.33173013 0.14907183 4281416764
0.30556938 0.32954305 0.1489573 4281548350
0.3058393 0.32790276 0.14887142 4281548350
0.30682921 0.32188836 0.14855649 4281350971
0.30709919 0.32024804 0.14847061 4281482557
0.308539 0.31149977 0.14801253 4281350971
0.30880898 0.30985948 0.14792664 4281219898
0.30916896 0.30767247 0.14781213 4281417023
0.30943888 0.30603215 0.14772624 4281154365
0.30970886 0.30439186 0.14764035 4281220158
0.31006885 0.30220479 0.14752583 4281154365
0.3104288 0.30001771 0.14741132 4281154365
0.31078875 0.29783067 0.1472968 4281088572
0.31105873 0.29619041 0.14721091 4281154365
0.31132871 0.29455006 0.14712502 4281285951
0.31168866 0.29236302 0.14701051 4281088826
0.31204861 0.29017594 0.14689599 4281220412
0.31240857 0.2879889 0.14678147 4281548350
0.31267852 0.28634861 0.14669558 4281482557
0.31285852 0.28525504 0.14663832 4281350971
0.23096675 0.77665925 0.17189044 4294901753
0.23123673 0.77501893 0.17180455 4294901753
0.23150671 0.77337867 0.17171866 4294901753
0.27951559 0.47860339 0.15604457 4281349175
0.27978557 0.4769631 0.15595868 4281283125
0.28005555 0.47532281 0.15587279 4281151539
0.28032553 0.47368252 0.1557869 4281282868
0.28068548 0.47149545 0.15567239 4281151280
0.28104544 0.46930841 0.15555787 4281217073
0.28140539 0.46712133 0.15544336 4281283123
0.28167534 0.46548104 0.15535747 4281217330
0.28194532 0.46384075 0.15527157 4281085744
0.2822153 0.46220046 0.15518568 4281085744
0.28563488 0.44142339 0.15409777 4281283637
0.28590485 0.4397831 0.15401189 4281152309
0.28626484 0.43759602 0.15389736 4281218615
0.28653482 0.4359557 0.15381147 4281218615
0.28680477 0.43431544 0.15372559 4281284408
0.28763935 0.43194878 0.15269834 4281349688
0.28799984 0.42975846 0.15258364 4281283638
0.28827021 0.42811576 0.15249763 4281283895
0.28854057 0.42647302 0.15241161 4281218102
0.28890106 0.42428276 0.15229693 4281152309
0.28878453 0.4222866 0.15309574 4281086516
0.28905451 0.42064628 0.15300985 4281218102
0.30867228 0.3014515 0.14676864 4281811524
0.30894223 0.29981118 0.14668275 4281548353
0.30930218 0.29762411 0.14656824 4281351231
0.30957216 0.29598385 0.14648236 4281219644
0.30975214 0.29489034 0.1464251 4281483327
0.31056204 0.28996941 0.14616743 4281285948
0.28567818 0.43192184 0.15288252 4281284408
0.28603813 0.4297348 0.152768 4281283895
0.28639808 0.42754775 0.15265349 4281218102
0.28666806 0.42590743 0.1525676 4281283895
0.28693801 0.42426714 0.1524817 4281152309
0.26185441 0.46272746 0.14564338 4281151535
0.26203442 0.46163392 0.14558612 4281151535
0.26018789 0.46361446 0.14497209 4281217328
0.30467251 0.79137969 0.20636892 4294241000
0.30485302 0.79028291 0.20631149 4294372586
0.30367851 0.79124159 0.20588177 4287924360
0.30385906 0.7901448 0.20582435 4287990153
0.28611943 0.77447963 0.19430013 4294901753
0.28630021 0.77338123 0.19424261 4294901753
0.28462625 0.77427214 0.19356833 4294901753
0.28480703 0.77317375 0.19351082 4294901753
0.27661115 0.76728797 0.18999012 4284111197
0.30160913 0.61540747 0.18092433 4281217082
0.3018803 0.61375988 0.18083806 4281217330
0.27489397 0.76536661 0.18892969 4283979610
0.30011591 0.61520004 0.18019253 4281413437
0.30038708 0.61355245 0.18010625 4281478963
0.27313155 0.76368719 0.18676595 4283848280
0.29763633 0.61483222 0.18008767 4285621097
0.29790708 0.61318707 0.18000153 4284962646
0.27213609 0.76354891 0.18627809 4283716694
0.29564837 0.61455607 0.17911337 4294835958
0.29591912 0.61291087 0.17902723 4294901236
0.29415736 0.61434889 0.17838265 4294901753
0.29442814 0.61270374 0.17829651 4294901753
0.26842979 0.76290989 0.18500219 4283650901
0.2929067 0.61418682 0.17721449 4294836218
0.29317766 0.61254048 0.17712829 4294901754
0.26621884 0.76247865 0.18445924 4283913814
0.26423088 0.7622025 0.18348494 4283979607
0.28841966 0.61523461 0.17578951 4294770683
0.28860018 0.61413783 0.17573208 4294770683
0.2521036 0.82649136 0.18500791 4281349944
0.25246513 0.82429457 0.18489288 4281415481
0.25282672 0.82209778 0.18477786 4281283894
0.25309789 0.82045019 0.18469159 4281481272
0.25327867 0.81935179 0.18463407 4281481272
0.26244208 0.76145506 0.18226498 4283913816
0.26249844 0.75934416 0.18229546 4283913816
0.26246795 0.75747013 0.18203737 4283913816
0.28710923 0.6139307 0.17500135 4294770683
0.24979688 0.83122671 0.18453492 4281415481
0.24997766 0.83012831 0.1844774 4281349688
0.25003979 0.82827783 0.18482275 4281415481
0.25019187 0.82588053 0.18513951 4281415481
0.25046265 0.82423538 0.18505336 4281481274
0.25073341 0.82259017 0.18496722 4281480760
0.25109443 0.82039666 0.18485236 4281546552
0.25145549 0.81820309 0.1847375 4281481271
0.25223741 0.81639832 0.1837585 4281349427
0.26105925 0.761325 0.181317 4284110939
0.2612032 0.75897723 0.18163636 4284045402
0.26147395 0.75733209 0.18155022 4284176988
0.22303906 0.98143059 0.19143856 4281679164
0.22331023 0.979783 0.19135229 4281613373
0.22367181 0.97758621 0.19123726 4281613373
0.22403336 0.97538942 0.19112223 4281613373
0.24794215 0.83321607 0.18391815 4281415481
0.24812292 0.83211768 0.18386064 4281349688
0.24797885 0.83006048 0.1846385 4281349688
0.24824962 0.82841533 0.18455236 4281349688
0.25032553 0.8158024 0.18389194 4281349686
0.25110582 0.81399411 0.18291166 4281283380
0.260281 0.7613402 0.18039495 4284766561
0.26042584 0.75899166 0.18071456 4284701025
0.26028946 0.75672692 0.18035567 4284701281
0.25984702 0.75486237 0.18046106 4285029733
0.2601178 0.75321716 0.18037492 4285947237
0.28335947 0.61509252 0.17338249 4294770686
0.22100355 0.98451835 0.1908793 4281481787
0.2211843 0.98341995 0.19082178 4281415994
0.2212677 0.98145622 0.19116244 4281481787
0.22135079 0.97949415 0.19150323 4281547325
0.22162156 0.97784895 0.19141708 4281350460
0.22198258 0.97565538 0.19130222 4281350717
0.22234362 0.97346187 0.19118737 4281350460
