# .PCD v0.7 - Point Cloud Data file format
VERSION 0.7
FIELDS x y z rgb
SIZE 4 4 4 4
TYPE F F F U
COUNT 1 1 1 1
WIDTH 1092
HEIGHT 1
VIEWPOINT 0 0 0 1 0 0 0
POINTS 1092
DATA ascii
0.51541275 0.61976987 0.14913438 4287863965
0.51690084 0.61932373 0.1494081 4288718507
0.50934082 0.62188524 0.1490472 4289374640
0.51132321 0.62080866 0.14928029 4287730842
0.51263463 0.61950773 0.14913087 4287929501
0.5141722 0.61897165 0.14933966 4288719016
0.50757176 0.62184519 0.14926833 4288389026
0.50823599 0.62067032 0.14949523 4287861912
0.50993258 0.61985433 0.1491822 4288979882
0.50371289 0.62200195 0.14957914 4287205263
0.50554985 0.62092578 0.14931658 4287797402
0.50638747 0.61977398 0.1496253 4289112235
0.50039196 0.62265933 0.1494797 4287666583
0.50135416 0.62194848 0.14987397 4288390819
0.5030601 0.62043267 0.14952567 4288389023
0.49680212 0.62306637 0.1495854 4287270801
0.49845243 0.62171674 0.14973988 4288785064
0.50064486 0.62086731 0.14948386 4288127133
0.49230182 0.62369698 0.14963338 4287203464
0.49405631 0.6227172 0.14951669 4289177254
0.4959943 0.62206823 0.1496384 4287992982
0.49716303 0.62132096 0.15015844 4287533204
0.4895516 0.62334847 0.14956471 4287401102
0.49139118 0.62273842 0.14979258 4288191389
0.49286014 0.62166965 0.14976953 4288915112
0.48480129 0.62474805 0.14971334 4287402129
0.48702759 0.62404513 0.14965749 4288783007
0.48844087 0.62238508 0.14974909 4287992980
0.48990592 0.62160271 0.15013878 4287930267
0.48148036 0.62540543 0.14961392 4287533456
0.48244253 0.62469465 0.15000817 4288521121
0.48418742 0.62371582 0.14989185 4287862936
0.48566628 0.62248534 0.14998133 4287598737
0.48689985 0.62202394 0.15017083 4289769391
0.48035276 0.62489146 0.15009788 4289506733
0.48142439 0.62332124 0.15020752 4287599508
0.48330289 0.62243181 0.15027674 4288456099
0.47553173 0.62575907 0.15001445 4288981672
0.47718939 0.6246897 0.15009399 4288059802
0.47861645 0.62373888 0.15027893 4288191132
0.47975788 0.62235147 0.15071985 4288520353
0.47285226 0.62594253 0.15017784 4288256662
0.47399801 0.6249516 0.15013538 4288257434
0.4757131 0.62363005 0.15026309 4289112746
0.47734261 0.6227861 0.15067804 4287270288
0.46894166 0.62658656 0.15015212 4289111718
0.47017279 0.62612605 0.15034124 4287927187
0.47148782 0.62446076 0.15034501 4288980389
0.47280759 0.62366205 0.15055752 4288783267
0.47433653 0.62320733 0.15071009 4287533458
0.46540356 0.62650639 0.15059435 4287927440
0.46712926 0.62583041 0.15039018 4288256409
0.46883392 0.62482154 0.15058562 4288782498
0.46294796 0.6259234 0.15065819 4287796117
0.46417159 0.62525886 0.15086886 4288980385
0.46590912 0.62448448 0.15073238 4288783265
0.4671427 0.62402308 0.1509219 4289178283
0.45822379 0.62732053 0.15080574 4288124566
0.46015149 0.6267944 0.15096498 4288717214
0.46142468 0.62549001 0.15100604 4288256667
0.4632763 0.62418014 0.15123333 4288586146
0.45554426 0.62750399 0.15096915 4288980643
0.4572247 0.62645823 0.15111138 4288388249
0.45854694 0.6255793 0.15138002 4287861650
0.46027017 0.62460142 0.15126538 4289836213
0.45313382 0.62793779 0.15092742 4289309869
0.45434812 0.6268031 0.15141667 4288387995
0.45586815 0.62515414 0.15135729 4288585631
0.45731601 0.62453449 0.15163463 4289573037
0.44895422 0.62833148 0.15110683 4288916138
0.45018536 0.62787098 0.15129597 4287599508
0.45168301 0.62655187 0.15124106 4288191383
0.45264643 0.62584013 0.1516359 4289112229
0.44440216 0.62944937 0.15081826 4289439656
0.44565052 0.62882644 0.15111959 4288519066
0.44716242 0.627949 0.15157092 4288585631
0.44891137 0.62615466 0.15141349 4288322972
0.45039162 0.62560099 0.15164091 4287664268
0.44172266 0.62963283 0.15098166 4289243047
0.44331905 0.62828964 0.15113747 4287926419
0.44449386 0.62736702 0.15145274 4289176742
0.44577843 0.62641811 0.15197915 4289308583
0.44744775 0.62543637 0.15207762 4287993492
0.43856984 0.62945664 0.15104042 4288125074
0.44041157 0.62871057 0.15142195 4288585115
0.44168299 0.6274876 0.15175655 4288716192
0.44351912 0.62617928 0.15198439 4287269006
0.43550509 0.62973613 0.15158732 4288389022
0.43759897 0.62838691 0.15138638 4288456095
0.43895814 0.62729937 0.15169525 4288586396
0.44051304 0.62660056 0.15201643 4289768623
0.43004262 0.63107759 0.15124103 4288387997
0.43100479 0.6303668 0.1516353 4288059032
0.43292063 0.62973583 0.15146057 4288980389
0.43444067 0.62856722 0.15129757 4288585887
0.43595207 0.62772059 0.15172729 4287534486
0.42859429 0.6308006 0.15159358 4288717476
0.43047887 0.62906468 0.15138033 4288388254
0.43144292 0.62835252 0.15177538 4287532688
0.4260571 0.63031334 0.15180361 4289374633
0.42701989 0.62960207 0.15219814 4289177767
0.42843685 0.62877375 0.15180741 4287796116
0.42141452 0.63161474 0.15180497 4289045921
0.423179 0.63038355 0.15155695 4288321429
0.42442843 0.62960219 0.15207174 4288453273
0.41718316 0.63249564 0.15164782 4288914082
0.41883847 0.63145316 0.15179048 4287795859
0.42017472 0.630647 0.15180194 4287926932
0.42183387 0.62960285 0.15194537 4289440169
0.41599506 0.63161254 0.151907 4287861909
0.41717491 0.63040513 0.1520945 4288256412
0.41914913 0.62978673 0.1521091 4289638062
0.41296136 0.63139075 0.15227088 4287598228
0.41435438 0.6308111 0.15252611 4288585634
0.41560408 0.62970638 0.15255222 4287730067
0.40924823 0.63207167 0.15281114 4287927189
0.41021043 0.63136083 0.15320541 4288388767
0.41200715 0.63011426 0.1526581 4287927959
0.4132407 0.6296528 0.15284762 4288651169
0.4081724 0.63107049 0.15363166 4287466894
0.40937424 0.62980986 0.15315901 4288190875
0.4058654 0.63052976 0.15426305 4289570471
0.40706274 0.62926817 0.15379167 4287927187
0.40459713 0.629094 0.15500085 4288977821
0.40598479 0.62826502 0.15461379 4289109666
0.4022136 0.62873763 0.15592007 4294901498
0.39958587 0.62843388 0.15642004 4294901755
0.40081701 0.62797338 0.15660916 4294901755
0.39829814 0.62739182 0.15667889 4294506998
0.39953047 0.62693089 0.1568682 4294901755
0.39368898 0.62830025 0.15715711 4294901755
0.39475712 0.62731159 0.15712149 4293519845
0.39641735 0.62633544 0.1570126 4290294970
0.39264771 0.62743866 0.15746689 4292598746
0.39396682 0.62662983 0.15748204 4290295225
0.39528754 0.62582046 0.15749751 4290163901
0.38927537 0.62666297 0.1575616 4289243049
0.39088553 0.62637323 0.15758947 4289243051
0.37126976 0.63902563 0.1520699 4294901755
0.37255266 0.63807786 0.15259559 4294901755
0.38666448 0.62765265 0.15837814 4292071885
0.38782421 0.62638539 0.15791485 4289570984
0.37019393 0.63802445 0.15289041 4294836219
0.37179753 0.63683975 0.15354751 4294836219
0.37340119 0.63565505 0.15420464 4294836219
0.3750048 0.6344704 0.15486173 4294836219
0.37641183 0.63328123 0.15554342 4294836219
0.37762234 0.63208765 0.15624966 4294901755
0.37922594 0.63090295 0.15690677 4294901755
0.38082957 0.6297183 0.15756388 4294901755
0.38202965 0.62796688 0.15743619 4294704376
0.38369167 0.62718892 0.15780127 4292138194
0.38605165 0.62634522 0.1581364 4289506476
0.3688491 0.63677293 0.15391608 4294901755
0.3704893 0.63546807 0.15438098 4294901755
0.37216732 0.63404202 0.15465425 4294901755
0.3736501 0.63311481 0.15526049 4294901755
0.37508488 0.63173944 0.15585086 4294901755
0.3766633 0.63072062 0.15649655 4294901755
0.37826902 0.6295343 0.15715447 4294901755
0.37981829 0.62868416 0.15778701 4294901499
0.3675043 0.63552141 0.15494171 4294901755
0.36921543 0.63397515 0.1550232 4294901755
0.37114537 0.63285857 0.15518789 4294901755
0.37243077 0.63190895 0.15571462 4294901755
0.37339482 0.6311968 0.15610965 4294901755
0.36626273 0.63390827 0.15539227 4294835964
0.3681165 0.63293678 0.15546337 4294836219
0.36412144 0.63397956 0.1563936 4292138712
0.36523694 0.6327247 0.15592641 4294770685
0.36285073 0.63245529 0.15698932 4289375672
0.36041784 0.63267463 0.15771408 4287599002
0.36099389 0.63150668 0.15765353 4287862432
0.35830235 0.63109946 0.15782426 4287006093
0.35425201 0.63229072 0.15865628 4294901496
0.35555097 0.63155675 0.15841661 4291083706
0.35685119 0.63082188 0.15817751 4287267208
0.35371408 0.6317901 0.15906654 4294966522
0.35435554 0.63131624 0.15932938 4294835960
0.23096476 0.64659142 0.16206074 4294769914
0.22764385 0.64724874 0.1619613 4289308849
0.22854918 0.64627868 0.1619304 4289177263
0.22398263 0.6466518 0.1615531 4289571254
0.22645734 0.64647573 0.16202019 4289178033
0.2273619 0.64550495 0.16198994 4289112238
0.2212979 0.64683563 0.16171683 4289768374
0.22253142 0.64637423 0.16190633 4289702582
0.21866503 0.64653128 0.16221777 4289703350
0.22016807 0.6463207 0.16220175 4289768373
0.21562096 0.64638078 0.16265553 4289242538
0.21812604 0.64602971 0.16262883 4289308849
0.21307795 0.64616001 0.16308796 4289242027
0.21458098 0.64594942 0.16307195 4289110695
0.21023357 0.64660466 0.16406739 4289242541
0.20840305 0.64556473 0.16401599 4289177262
0.20651859 0.64579326 0.16528787 4289440435
0.20346141 0.64537078 0.16542742 4288651945
0.20470639 0.64463133 0.16538146 4288915373
0.19906987 0.64635712 0.16570438 4288781217
0.20035276 0.64540935 0.16623007 4288256162
0.20209742 0.64428931 0.16600849 4288453540
0.20329288 0.64349151 0.1660295 4288650917
0.18548581 0.65459645 0.16139945 4284309342
0.18708941 0.65341175 0.16205657 4285427313
0.18869303 0.65222704 0.16271368 4284835177
0.18997593 0.65127933 0.16323936 4285361513
0.19157954 0.65009463 0.16389647 4287136641
0.19446605 0.64796221 0.16507927 4294836217
0.19606967 0.64677751 0.16573638 4294770681
0.19784288 0.64533418 0.16573882 4290097843
0.19947672 0.64477175 0.16646668 4287927195
0.20092952 0.64343792 0.16632491 4288190366
0.17841974 0.65712255 0.16039607 4285163881
0.17994571 0.65666872 0.16054834 4285427053
0.18117434 0.65557683 0.16065542 4285230444
0.18294002 0.65469569 0.16078961 4285033577
0.18447851 0.65334183 0.16116364 4285428079
0.18608527 0.6521548 0.16182199 4284967274
0.18769203 0.65096784 0.16248043 4285164141
0.18897742 0.65001822 0.16300716 4286151796
0.19058418 0.64883119 0.1636655 4285361514
0.19219096 0.64764422 0.16432394 4288189078
0.19379771 0.6464572 0.16498229 4294111214
0.17723776 0.6562798 0.16070797 4285493616
0.17846856 0.65541053 0.16097969 4285625202
0.18023889 0.65422451 0.16100618 4285427569
0.17188141 0.65746284 0.1608703 4286018673
0.17461263 0.6567921 0.16104344 4285756019
0.175466 0.6558314 0.16101164 4285953398
0.17011234 0.65742272 0.16109142 4285822323
0.17133115 0.65630639 0.1605157 4286019444
0.17326266 0.65577918 0.16067524 4286085236
0.16523956 0.65877753 0.16067143 4286743165
0.16699445 0.65759498 0.1606971 4286282878
0.16851623 0.65652859 0.16097337 4286086780
0.16253105 0.65830863 0.16088729 4285821550
0.16428638 0.6574285 0.16102181 4285755761
0.16606882 0.65659493 0.16088705 4285558639
0.16703287 0.65588272 0.16128208 4286019449
0.15858296 0.65927815 0.16063701 4286019441
0.15980765 0.65840989 0.1609087 4286151029
0.16155969 0.6572268 0.16093512 4285295725
0.15570104 0.65953821 0.16117765 4286084466
0.15717529 0.65839911 0.1610807 4285953398
0.15858819 0.65732259 0.16119197 4285822068
0.15088002 0.66040581 0.1610942 4285097571
0.15207528 0.65929353 0.16133608 4285295462
0.15413119 0.65844429 0.16129927 4285624683
0.15537342 0.65747809 0.1614334 4285887857
0.14975239 0.65989184 0.16157816 4285294956
0.15117927 0.65837735 0.1616682 4286150775
0.15237568 0.6572634 0.16191122 4285493100
0.14562459 0.65979832 0.16209412 4284638566
0.14712468 0.6595881 0.16207813 4285230446
0.14881743 0.65832382 0.1619634 4285624690
0.15001231 0.65720981 0.16220662 4285098347
0.14417624 0.65952128 0.16244666 4285295984
0.14550318 0.65784168 0.16225469 4285558641
0.14733794 0.65729606 0.1624378 4285164140
0.13898274 0.66111302 0.16189525 4285558896
0.14023113 0.6604901 0.16219656 4284047199
0.14162791 0.6591391 0.16217522 4284901995
0.14312252 0.65795088 0.16243771 4286545537
0.13544463 0.66103286 0.1623375 4283979611
0.13720201 0.66009688 0.16239417 4284045402
0.1387962 0.65935123 0.16266227 4284309343
0.14072458 0.65822279 0.16250831 4285559926
0.14200999 0.65727317 0.16303502 4284440417
0.13423456 0.66019267 0.16265067 4282861129
0.13560931 0.65908468 0.16270629 4284505954
0.13717951 0.65814245 0.16295141 4285165161
0.13168928 0.66021514 0.16332142 4281677879
0.13301522 0.65914804 0.16300611 4282861642
0.13420799 0.65823823 0.16320828 4284440417
0.12867063 0.66000152 0.16331001 4281217328
0.13021031 0.65908438 0.1633568 4281283121
0.13154055 0.65825939 0.16348439 4281941051
0.1250992 0.66104263 0.16345909 4281283124
0.12606137 0.66033185 0.16385336 4281151537
0.12735279 0.6586538 0.16366412 4281151536
0.12000922 0.66165996 0.16358079 4281086514
0.12097139 0.66094911 0.16397505 4281086514
0.12332859 0.66043335 0.16387571 4281020467
0.12493755 0.65908849 0.16362235 4281348916
0.12590161 0.65837628 0.16401739 4281348916
0.11845128 0.66121966 0.16365103 4281020208
0.1201921 0.659715 0.16369997 4280954672
0.12257419 0.65903497 0.16391777 4280889135
0.11432954 0.66226387 0.16377617 4280954928
0.1160351 0.66108471 0.16380483 4280954671
0.11774371 0.65990418 0.16383415 4281085744
0.11870775 0.65919203 0.1642292 4281348916
0.10950853 0.66313142 0.16369274 4280823340
0.11126643 0.66203427 0.16386262 4280757547
0.11335243 0.66126841 0.16396852 4281020719
0.11456335 0.66040063 0.16424142 4280823340
0.1061876 0.6637888 0.16359331 4280954156
0.10714976 0.66307795 0.16398756 4280954156
0.10863071 0.66189557 0.16392039 4280757290
0.11034415 0.66111994 0.16419637 4280691754
0.10476514 0.66326815 0.16411412 4280822570
0.10616561 0.66208327 0.16418006 4281019949
0.10752099 0.66079813 0.16432144 4280822570
0.1005338 0.66414911 0.16395697 4280954413
0.1017997 0.66320229 0.16430861 4280954156
0.10336231 0.66201955 0.16453068 4280690984
0.10491092 0.66083682 0.16457894 4280954156
0.099163085 0.66314119 0.16481434 4280888365
0.10052384 0.66163099 0.1649086 4280822572
0.1016872 0.66051912 0.16515374 4280690985
0.096214652 0.66307443 0.16518287 4280954158
0.097400986 0.66212833 0.16519214 4280954158
0.09898518 0.66086572 0.16520506 4280954158
0.094869837 0.66182292 0.16620852 4280757034
0.096066192 0.66087812 0.1659236 4280954413
0.097872645 0.66018802 0.16580237 4281019951
0.092242137 0.66151917 0.16670848 4282139202
0.09356609 0.66028446 0.16644973 4280822828
0.091166273 0.66051799 0.167529 4287403157
0.092294022 0.65949959 0.16742024 4282270791
0.08982145 0.65926647 0.16855465 4288257441
0.090462893 0.65879261 0.16881749 4288125855
0.08823061 0.65825468 0.16882533 4285362808
0.088999778 0.65729547 0.16880174 4287007122
0.08696723 0.65719944 0.16982697 4284837489
0.087921806 0.65629226 0.16962387 4285231993
0.084452309 0.65694696 0.17076935 4284575087
0.085019454 0.65573716 0.17033033 4284640880
0.08274325 0.65584916 0.17131786 4284575087
0.08421097 0.65498477 0.17094693 4284706673
0.078607187 0.65632612 0.17184296 4284838000
0.079888865 0.6552949 0.17160958 4284837746
0.081899464 0.65444303 0.17157955 4284771953
0.07624846 0.65627271 0.1721378 4285035377
0.077496819 0.65564978 0.17243911 4284903793
0.078601114 0.65427041 0.17206056 4284969333
0.07271032 0.65619248 0.17258005 4285100918
0.074409626 0.65546298 0.17273186 4285035380
0.076012701 0.6545071 0.17291285 4285035379
0.077545911 0.65361035 0.17263925 4285100918
0.070030846 0.656376 0.17274345 4285232249
0.071459271 0.65534914 0.17289992 4285298298
0.073316216 0.65457654 0.17323996 4285232505
0.074322201 0.6532926 0.17321405 4285364090
0.067620337 0.65680981 0.17270173 4284046431
0.0686187 0.65552855 0.17267476 4285231733
0.069761224 0.65441269 0.17292491 4285495418
0.063120037 0.65744042 0.17274971 4282204225
0.06438107 0.65641063 0.17251751 4282729798
0.066381931 0.65555954 0.17248806 4284375652
0.061429553 0.65634376 0.17288642 4282204225
0.06018756 0.65534937 0.17383714 4282466882
0.059204578 0.65417618 0.17516269 4283124555
0.060463283 0.65273386 0.17511813 4285822840
0.061800554 0.65129608 0.17598206 4286942863
0.063085958 0.65034652 0.17650881 4287008402
0.071441121 0.6441741 0.17993249 4287272087
0.072083816 0.64369929 0.18019584 4287337880
0.074654639 0.64180005 0.18124928 4287864737
0.076427169 0.64184022 0.18102773 4287666845
0.077515677 0.63995636 0.18223207 4285823355
0.078510851 0.63895124 0.18282944 4283914328
0.058226913 0.6534223 0.17610548 4283914333
0.059561569 0.65198731 0.17696773 4287270288
0.060733937 0.65091228 0.17728816 4287402643
0.062301807 0.64968407 0.17787752 4287402389
0.063614763 0.64815634 0.17798933 4287402390
0.065221518 0.64696932 0.1786477 4287402902
0.066828266 0.64578235 0.17930613 4287534489
0.068435028 0.64459532 0.17996448 4287600797
0.070041806 0.6434083 0.18062294 4287666333
0.071327209 0.64245874 0.18114965 4286678410
0.07293395 0.64127171 0.18180799 4285033070
0.073949873 0.64007133 0.1825403 4283584856
0.076738335 0.63891107 0.18305099 4283585108
0.077702381 0.63819891 0.18344602 4283453520
0.058754664 0.65123641 0.17758311 4287402390
0.060037564 0.65028864 0.1781088 4287534228
0.061494377 0.6489327 0.17849331 4287600023
0.062782437 0.64716768 0.17938785 4287863195
0.064165361 0.64606148 0.18021841 4287205265
0.065770015 0.64487606 0.180876 4286153090
0.067227378 0.6438477 0.18132238 4285100917
0.068605952 0.64265031 0.18172093 4283718494
0.065158948 0.64381123 0.18209943 4283784025
0.066121116 0.64310038 0.18249369 4283455573
0.067083292 0.6423896 0.18288796 4283323987
0.54566699 0.61238223 0.14807847 4288717732
0.54714108 0.61108422 0.14760242 4288320664
0.53925276 0.61552662 0.14779654 4288389543
0.54115707 0.61461818 0.14798144 4289310134
0.54300874 0.61314017 0.1478361 4288322726
0.54403144 0.61194998 0.14803468 4288783530
0.54562926 0.61129612 0.14761855 4288980652
0.53685802 0.61493313 0.14786117 4288981932
0.53816712 0.61430347 0.14824818 4288784810
0.5399273 0.61323422 0.14810614 4288061091
0.54121667 0.61221391 0.14786428 4288588464
0.53236675 0.61610609 0.14814068 4288717734
0.53387278 0.61589509 0.14812464 4289046697
0.53527892 0.6145435 0.14818433 4287862937
0.53701055 0.61295199 0.14837721 4288850350
0.53844529 0.61162555 0.14817078 4288389544
0.5296768 0.61629033 0.14830475 4288916396
0.53125209 0.61542708 0.14873917 4289047211
0.53267896 0.6140722 0.14855359 4288981934
0.5342254 0.61275065 0.14833164 4288587177
0.53588909 0.61192906 0.14864543 4288652972
0.53730887 0.61110759 0.14865854 4289509049
0.52725685 0.6167258 0.14826287 4287862418
0.52821922 0.61569834 0.14863409 4288388507
0.53014165 0.61397099 0.14834945 4289177513
0.53120923 0.61244607 0.14838383 4288058782
0.53244996 0.61198193 0.14857444 4289046195
0.52273887 0.61735892 0.14831102 4288914340
0.52429682 0.61665875 0.14863284 4287993237
0.52574021 0.61551487 0.14886977 4289572269
0.52692437 0.61373979 0.14864369 4288519326
0.52133685 0.61659169 0.14900282 4288783528
0.52312088 0.61442721 0.14828369 4289442226
0.52408993 0.6137113 0.14868081 4288782500
0.5170629 0.6177206 0.14867613 4288060833
0.51864684 0.61677587 0.14916687 4288454562
0.52019513 0.61490005 0.14888415 4287994011
0.52139121 0.61389613 0.14884537 4288455843
0.51128304 0.61906064 0.14836548 4288454562
0.51224893 0.61834705 0.14876129 4288454818
0.51380694 0.61764687 0.14908311 4289179053
0.51573652 0.61640525 0.14897783 4288257441
0.51721048 0.61488181 0.14915437 4289046956
0.51819336 0.61346382 0.14908883 4289244592
0.51016831 0.61838162 0.14896397 4288848807
0.51114076 0.61712623 0.14921373 4288782756
0.51285219 0.61607844 0.14930731 4287532946
0.51419675 0.61466813 0.14898564 4289112750
0.51560062 0.61356914 0.14929768 4288587947
0.50746095 0.61872888 0.1490154 4288059547
0.5084157 0.61770219 0.14938697 4287532947
0.51003009 0.61566406 0.14917013 4288716705
0.51133609 0.61445695 0.1491393 4288979620
0.51257688 0.61399281 0.14932992 4287993241
0.50267303 0.6191107 0.14926949 4288981672
0.50454462 0.61880988 0.1492766 4288059031
0.50556898 0.61717039 0.14936213 4288651684
0.50695038 0.61591244 0.149647 4288060061
0.5092299 0.61465532 0.14922971 4287928218
0.51019967 0.61393899 0.14962706 4289967029
0.4999311 0.61978406 0.14909567 4288126106
0.50136226 0.61832285 0.14965911 4288060057
0.5027886 0.61666888 0.14943832 4288520865
0.50437111 0.61552972 0.1491456 4287861909
0.50566405 0.61457455 0.14967541 4288256153
0.49509114 0.620655 0.14901191 4289308584
0.49690878 0.61950541 0.14962104 4287926419
0.49885631 0.61814684 0.14954485 4289045925
0.50022238 0.61646509 0.14955467 4287861650
0.50139958 0.61546242 0.14951703 4287335307
0.49148723 0.62106371 0.14911801 4289180338
0.49274054 0.62043834 0.1494205 4288521641
0.49421313 0.61936539 0.14939998 4288387743
0.49550232 0.61841297 0.14992824 4289440169
0.49700657 0.61673862 0.14940666 4288782241
0.49897012 0.61589956 0.14947499 4289374633
0.48847523 0.62148577 0.14915012 4287993237
0.49005923 0.62054104 0.14964086 4288060570
0.4917053 0.61916989 0.14993355 4288061086
0.49306288 0.61782253 0.14999564 4287927191
0.49462259 0.61648703 0.14994563 4288651426
0.48524526 0.62116742 0.14972603 4288652451
0.48702961 0.62057042 0.14995068 4289112231
0.48863244 0.61965549 0.15024309 4287796626
0.49007982 0.61798251 0.14996333 4288389278
0.4917601 0.61647457 0.14985763 4288717476
0.48287722 0.62111378 0.15002203 4288456358
0.48443514 0.62041354 0.15034384 4288653737
0.4858202 0.61931962 0.1506543 4287271314
0.48708239 0.61747307 0.15036768 4288390049
0.48908573 0.61641395 0.15019192 4288390306
0.49032649 0.61594987 0.15038253 4287863193
0.48168358 0.62040889 0.15047191 4287402130
0.48303342 0.61894304 0.15100375 4288651937
0.48456413 0.6176821 0.1506124 4287863188
0.48611411 0.61634666 0.15056334 4287468178
0.47534734 0.62216896 0.1501023 4288716705
0.47711301 0.62150848 0.15037355 4288849062
0.47878522 0.62053072 0.15087786 4288980904
0.4800711 0.61860299 0.15068939 4289177253
0.48147082 0.6173591 0.15084949 4289308071
0.47324935 0.62236655 0.15019235 4287993238
0.4740667 0.62121302 0.15050444 4287796116
0.47535551 0.62026089 0.15103249 4288849315
0.47729343 0.61867172 0.1508127 4288388249
0.47869736 0.61699897 0.15091422 4288782499
0.48017102 0.61621195 0.1513062 4289177261
0.46840945 0.62323755 0.15010859 4289638321
0.46998039 0.62241507 0.15051487 4287664273
0.47169754 0.62115932 0.15080053 4289243818
0.4733206 0.61901021 0.15008819 4288388254
0.47461355 0.61805499 0.150618 4287795858
0.46544939 0.6231705 0.15047857 4289111969
0.46709535 0.62232929 0.15058312 4287665044
0.46862251 0.62064147 0.15043645 4289113003
0.46990669 0.6193704 0.15061657 4288519840
0.47153765 0.6189698 0.15031105 4288387999
0.46275941 0.62335467 0.15064262 4287534230
0.46463937 0.62241662 0.15109637 4288980644
0.4660646 0.62055361 0.15081805 4287993237
0.46720791 0.61955523 0.15078117 4287993750
0.45856351 0.62374991 0.15082271 4288717730
0.45979941 0.62328762 0.1510126 4288980904
0.46175128 0.6223309 0.15116486 4287928732
0.46336067 0.6208474 0.1513156 4288914854
0.46435374 0.61929923 0.15086327 4289177511
0.45713541 0.62322724 0.15134558 4288914854
0.45862627 0.62195355 0.15158677 4287269772
0.4600279 0.62038994 0.15118255 4289244073
0.46184558 0.61959779 0.15133618 4289573034
0.46321729 0.61878127 0.15135103 4287269767
0.45345357 0.62436962 0.15094489 4288717470
0.45441949 0.62365603 0.15134069 4287861910
0.45554674 0.62226528 0.15178552 4288255896
0.45708299 0.62054443 0.15127258 4289375144
0.45839322 0.61932826 0.15149309 4287862421
0.45044991 0.62415451 0.15142363 4288783006
0.45178145 0.6233511 0.15184262 4288847773
0.45317763 0.62221158 0.15208164 4288519582
0.45474041 0.62006593 0.15137346 4288652450
0.44753352 0.62423551 0.15168485 4287796629
0.44882146 0.62328404 0.15221259 4288849315
0.45059139 0.62181258 0.15243952 4287992727
0.45187804 0.62023002 0.15206118 4288585632
0.44296363 0.62535775 0.15139514 4287531921
0.44484356 0.62441969 0.1518489 4289177513
0.44606808 0.62284225 0.15200529 4288256667
0.4475145 0.6216076 0.15210123 4287598737
0.44896281 0.62037158 0.15219793 4289243305
0.4381237 0.62622875 0.15131138 4288982445
0.4400036 0.62529069 0.15176512 4287927188
0.44194579 0.62433493 0.15191777 4288716704
0.44353262 0.6228537 0.15206935 4288783010
0.44480383 0.62107134 0.15175121 4288387996
0.44636786 0.62036842 0.15207428 4289045925
0.43446776 0.62712651 0.15107961 4287993237
0.43545759 0.6259805 0.15136753 4287796371
0.43714035 0.62513649 0.15172562 4288061085
0.43877569 0.62342399 0.15180796 4288322717
0.44066039 0.6224919 0.15181893 4288387995
0.44198534 0.62160736 0.15209116 4288717726
0.44366735 0.62055331 0.15223897 4287796628
0.42962784 0.62799752 0.15099585 4289703857
0.4314974 0.62715727 0.15138203 4288322204
0.43311325 0.62626648 0.15162694 4289046181
0.43441129 0.62490827 0.15166222 4288388247
0.43580627 0.6233654 0.15173492 4288190868
0.43783882 0.6221441 0.15175751 4289310637
0.42851314 0.62731844 0.15159434 4287270282
0.4300476 0.62600935 0.15173294 4289178027
0.43148535 0.62437177 0.15176235 4288190873
0.43346184 0.62338191 0.15177462 4288651678
0.43513834 0.622329 0.15192221 4290164658
0.42516187 0.62814146 0.15138188 4287597963
0.4259479 0.62699163 0.1516947 4289243303
0.42737395 0.62576151 0.15178972 4288125334
0.42868674 0.6245563 0.15167513 4287927187
0.43027949 0.6232034 0.15183811 4289177511
0.42032194 0.62901247 0.15129812 4288256154
0.42128789 0.62829888 0.15169393 4288190616
0.42306095 0.62756854 0.15201344 4288191126
0.42426533 0.62556267 0.1514506 4288455067
0.42569172 0.62433004 0.15154727 4288783262
0.41795391 0.62895876 0.1515941 4288849318
0.41891986 0.62824517 0.15198992 4288190874
0.42046818 0.62674016 0.15165122 4287401102
0.42157519 0.6253494 0.1520983 4288783011
0.42331448 0.62427616 0.15184441 4288783265
0.42428419 0.62355977 0.15224177 4287532686
0.41467196 0.62912959 0.15183213 4288519585
0.4162299 0.62842941 0.15215395 4287598225
0.41748348 0.62661952 0.15221487 4288190616
0.41928694 0.62511027 0.15210693 4288322456
0.41144192 0.62881124 0.15240806 4289310637
0.41332504 0.62799329 0.15228638 4287796885
0.41476521 0.62694913 0.15233098 4288321945
0.41634947 0.62534899 0.15185072 4288322202
0.41731918 0.6246326 0.15224807 4286678149
0.4106319 0.62805742 0.15302587 4288454302
0.41198561 0.62633723 0.15261416 4287599250
0.41360155 0.62539148 0.15252954 4288190616
0.4076719 0.62799031 0.15339585 4287795602
0.40875703 0.62699968 0.15335985 4287795344
0.410065 0.62574995 0.15317474 4288913568
0.4060947 0.62662369 0.15411873 4288452762
0.40752295 0.62546378 0.15395972 4289243302
0.40876126 0.62500101 0.15414964 4287466889
0.40363181 0.62691814 0.15458956 4292992477
0.4048413 0.62525094 0.15460618 4288912543
0.40635347 0.62401855 0.15436621 4288584346
0.40104574 0.62612408 0.15542935 4294901755
0.40228167 0.62566173 0.15561923 4294901498
0.40320435 0.62413818 0.15536177 4294835705
0.39923167 0.62551093 0.15605785 4294112242
0.40087223 0.62337637 0.15545022 4294770427
0.40261787 0.62282276 0.15512279 4294705146
0.39668366 0.62528974 0.15649113 4290557887
0.39779347 0.62420321 0.15631527 4290953674
0.39937487 0.62380576 0.15601295 4294901502
0.3924877 0.62568498 0.15667124 4289638066
0.39372367 0.62522268 0.15686111 4289638579
0.3952781 0.62422222 0.15647404 4289901240
0.39111289 0.62462449 0.15674809 4288980392
0.39228997 0.62378466 0.15639167 4288915370
0.39365101 0.62311178 0.15589789 4288981676
0.38852713 0.62472934 0.15695651 4289045672
0.38940024 0.6239475 0.15700145 4288519328
0.38382578 0.62622422 0.15723738 4290098356
0.38524202 0.6249007 0.1571945 4288979625
0.38693079 0.62382668 0.15694675 4288914088
0.38016984 0.62712198 0.15700562 4294375156
0.38113576 0.6264084 0.15740143 4290558654
0.38234594 0.62490737 0.15734212 4288650919
0.38399562 0.6236667 0.15717483 4288124578
0.38505957 0.62267101 0.15714462 4288058782
0.37050021 0.63156098 0.1549428 4294901755
0.37178811 0.63060951 0.15547054 4294901755
0.37356073 0.62975073 0.1558803 4294901755
0.37509757 0.6281842 0.15589273 4294901755
0.37668228 0.62716156 0.15654033 4294638072
0.37808999 0.62583852 0.15649807 4291480012
0.37967446 0.62500191 0.15683113 4289045676
0.36721823 0.63173175 0.15518084 4294901755
0.36915168 0.63061112 0.15534799 4294836219
0.3709127 0.62891781 0.15522063 4294836219
0.37219986 0.62808168 0.1555652 4294770683
0.37421566 0.62660933 0.15556149 4294835964
0.37550864 0.62565416 0.1560913 4293388006
0.36485022 0.6316781 0.15547682 4293783536
0.36640814 0.63097793 0.15579863 4294770683
0.36782137 0.62911731 0.15554909 4294770683
0.36929041 0.62786674 0.15552232 4294836219
0.37119195 0.62703305 0.15559374 4294901755
0.36377016 0.63067299 0.15630056 4290362308
0.36515948 0.62935525 0.15625654 4293980658
0.36633313 0.6279074 0.15550964 4294770683
0.36118406 0.62987888 0.15714034 4287797152
0.36256704 0.62886661 0.15647359 4288323241
0.36389029 0.62789339 0.15660386 4289836221
0.35923141 0.6292206 0.15699774 4287007377
0.36066106 0.628025 0.15604575 4287402392
0.35553408 0.62999606 0.15767437 4293453537
0.35678107 0.62916553 0.15763088 4289043871
0.22934343 0.64478827 0.1610503 4289966263
0.2300384 0.64372236 0.1609052 4292795105
0.22450347 0.64565927 0.16096653 4289571254
0.22546944 0.64494568 0.16136234 4289177775
0.22723192 0.64329833 0.16094688 4288980395
0.22873507 0.64214778 0.16082425 4288914346
0.22122151 0.64583009 0.16120458 4289768373
0.22268572 0.64474046 0.16088998 4289308591
0.22447738 0.64341074 0.16070837 4288979625
0.22538601 0.64243424 0.16068159 4288913832
0.2201467 0.64443076 0.16107774 4289308335
0.22152062 0.64409369 0.16116463 4289242542
0.21594547 0.64522022 0.16220841 4289045672
0.21704477 0.64423788 0.16155155 4289111724
0.21910775 0.64353466 0.16120698 4289045676
0.21444707 0.64443719 0.16230831 4288847778
0.21609592 0.6429621 0.16132423 4288979364
0.21150814 0.64440358 0.1625649 4288848294
0.21294525 0.64365423 0.16240868 4288716706
0.2092154 0.64433223 0.16356617 4288848553
0.20988171 0.6425752 0.16227382 4288849320
0.2068474 0.64427853 0.16386217 4289111470
0.20773643 0.64330381 0.16383633 4288717480
0.20879743 0.64156616 0.16310078 4288651941
0.20506792 0.64290261 0.1645319 4288717481
0.20627993 0.64169633 0.16430631 4288717480
0.20798421 0.64080936 0.163721 4288849320
0.2019453 0.64294165 0.1653358 4288387745
0.20344828 0.64167577 0.16507943 4288519331
0.20483367 0.64013016 0.16484837 4288585894
0.19925532 0.64312589 0.16549987 4287861144
0.20077457 0.64208764 0.16565433 4287992730
0.20223124 0.64062172 0.16550267 4288387745
0.20369202 0.63915336 0.16535224 4288520101
0.18218012 0.65303576 0.16040248 4285098602
0.18346806 0.65208429 0.16093023 4286085498
0.18507795 0.65089494 0.16158992 4285099117
0.18668786 0.64970565 0.16224959 4285690482
0.18829776 0.6485163 0.16290928 4285954163
0.18990766 0.64732701 0.16356897 4286348407
0.19119559 0.64637554 0.16409671 4286545277
0.19280548 0.64518619 0.1647564 4289833133
0.19495544 0.64449942 0.16500422 4294770680
0.19625367 0.64322454 0.16540742 4294704632
0.19795768 0.64223057 0.1659635 4290427578
0.19923514 0.64046699 0.16573371 4287400594
0.20084852 0.63928539 0.16592023 4287729816
0.20230189 0.63821942 0.16615979 4288256159
0.17949015 0.65321994 0.16056652 4285428080
0.18137006 0.65228194 0.16102028 4285822838
0.18267508 0.65083289 0.16115946 4285361775
0.18437056 0.64989227 0.16188055 4285625204
0.18582006 0.64824641 0.16214229 4285230703
0.18751526 0.64730591 0.16286324 4285427564
0.18890609 0.64605671 0.16334353 4286875007
0.19024362 0.64523309 0.16408278 4285229930
0.19190249 0.64417201 0.16495372 4284967019
0.19351397 0.64298153 0.16561405 4291086023
0.19506615 0.64161617 0.16599476 4294704890
0.19656102 0.64007348 0.1660973 4294770426
0.19774891 0.63901871 0.16609509 4291809232
0.19900708 0.6383909 0.16639878 4286742663
0.17610425 0.65436906 0.16012883 4285756018
0.17707017 0.65365547 0.16052464 4285098345
0.17861004 0.65229768 0.16090129 4285493873
0.1800818 0.65077007 0.1609958 4285164908
0.1814898 0.64906931 0.16080984 4285033579
0.17126432 0.65524 0.16004506 4286413944
0.17275995 0.65432829 0.16052225 4286084980
0.17435898 0.65318263 0.16074347 4285690478
0.17575347 0.65148717 0.16055533 4285690736
0.17725241 0.65032917 0.16069393 4284835687
0.16830431 0.65517294 0.16041505 4286020987
0.16980514 0.65434742 0.16052444 4285690997
0.17120932 0.65269625 0.16040632 4285492333
0.17269427 0.65141559 0.16053042 4285887858
0.17387831 0.65061969 0.16055125 4285887606
0.1653443 0.65510589 0.16078503 4285756018
0.16706806 0.65383345 0.16067277 4285756019
0.16844048 0.65263349 0.1607524 4285361006
0.17028418 0.65168875 0.16060136 4285558129
0.17150106 0.6505658 0.16084839 4286150008
0.16077441 0.65622813 0.16049533 4285229934
0.16265433 0.65529007 0.16094908 4285690483
0.16406481 0.65368253 0.1609019 4285690480
0.16551934 0.65215588 0.1609976 4285952884
0.16765013 0.65129894 0.16075355 4285952884
0.15840641 0.65617448 0.16079131 4285361519
0.15992315 0.65539098 0.16097169 4285887863
0.16151796 0.65369034 0.1612151 4285756275
0.16295734 0.65246654 0.16105889 4285690481
0.16458821 0.65114754 0.16119389 4286611072
0.15574239 0.6561141 0.16112429 4285361513
0.15721416 0.6549471 0.16123809 4285559409
0.1586446 0.65339476 0.16128631 4285624946
0.15972939 0.65202188 0.16110979 4285887602
0.15307839 0.65605378 0.16145729 4285295465
0.15423721 0.65485239 0.16156116 4286085237
0.15563574 0.65324384 0.16151603 4286282872
0.15708105 0.65171576 0.16161367 4285887604
0.15038842 0.65623796 0.16162133 4285164140
0.15167634 0.65528649 0.16214909 4285560182
0.15315609 0.65384632 0.1623857 4285954681
0.15446691 0.65206826 0.1620602 4285887861
0.1556735 0.65094554 0.16230817 4285887861
0.1471584 0.65591961 0.16219725 4285295726
0.14871633 0.65521944 0.16251905 4285888377
0.15020774 0.65380681 0.16280319 4285362805
0.15158474 0.65216887 0.1627129 4285691511
0.15274101 0.65124977 0.16272108 4286217341
0.14291047 0.65680403 0.16203947 4285755250
0.1444684 0.65610385 0.16236129 4285361005
0.14594054 0.6546644 0.16259819 4285690486
0.14732575 0.65305555 0.16255473 4286019708
0.14876066 0.65152723 0.16265367 4285954171
0.15000147 0.65106314 0.16284429 4286283391
0.13807055 0.65767497 0.16195571 4284572001
0.13962848 0.65697479 0.16227752 4284835430
0.14150842 0.65603673 0.16273127 4284965989
0.14334174 0.65501523 0.16304421 4285426797
0.14458229 0.65315676 0.16257848 4285624690
0.14610279 0.65208334 0.16285978 4285624690
0.14794746 0.65077049 0.16327389 4285756276
0.13570254 0.65762132 0.1622517 4285427312
0.1370526 0.65667123 0.16246502 4284506974
0.13861535 0.65572536 0.1627748 4284966244
0.14012949 0.65412152 0.1627955 4286084214
0.14178905 0.65326911 0.16289182 4285558125
0.14335969 0.65189713 0.16298304 4285493616
0.13458782 0.65694231 0.16285019 4284571746
0.13603355 0.65566677 0.16297486 4284374366
0.13742633 0.65410143 0.16300224 4285558639
0.13919145 0.6529519 0.16310583 4285492334
0.14038813 0.65182978 0.16335447 4285294697
0.13171734 0.65683055 0.16324177 4282335811
0.13308404 0.65569824 0.1631518 4283782231
0.13470547 0.65424442 0.1630964 4284637024
0.13580036 0.65295643 0.16306363 4284439388
0.1286505 0.65697122 0.16347753 4281348915
0.13005689 0.65544957 0.16357487 4281875260
0.13194798 0.65360767 0.16333322 4284242266
0.1336942 0.65315479 0.16315405 4284967012
0.12440258 0.65785563 0.16331975 4281283123
0.1262825 0.65691757 0.16377351 4281283123
0.12768541 0.65539587 0.16387129 4281348917
0.12904096 0.65378809 0.1638303 4281744445
0.13012832 0.65307403 0.16359976 4282269248
0.12047663 0.65850216 0.16329393 4280889135
0.12144257 0.65778852 0.16368975 4280889135
0.12332249 0.65685052 0.16414349 4281151537
0.12472116 0.65532869 0.16424181 4281283123
0.12617712 0.65403116 0.164432 4281151794
0.12807432 0.65278137 0.16402936 4281415479
0.11590672 0.6596244 0.16300423 4281085744
0.11687267 0.65891081 0.16340004 4281085744
0.11876186 0.65772831 0.16377909 4281151537
0.12024181 0.65619266 0.16396004 4281085487
0.12170465 0.65485108 0.16400668 4281414452
0.12321548 0.65365571 0.16394526 4281283123
0.12510273 0.65271401 0.16440077 4281283380
0.114792 0.65894538 0.16360271 4280757547
0.11606863 0.6577661 0.16380095 4281020206
0.11759145 0.65652543 0.16401541 4281085744
0.1190066 0.65488857 0.16402927 4281019694
0.12083822 0.65360188 0.1642424 4281348915
0.10966475 0.65972811 0.16361226 4280823340
0.11181468 0.65904135 0.16386007 4280823342
0.11314684 0.65718323 0.16379294 4280691755
0.11474639 0.6560874 0.16357015 4280888877
0.11592723 0.65496731 0.1638191 4281085742
0.10761872 0.65943658 0.16404018 4280756777
0.10885468 0.65897429 0.16423005 4280888365
0.11034976 0.65761995 0.16460916 4280954928
0.11177417 0.65573347 0.16404071 4280691756
0.10464832 0.65946734 0.16434258 4280888363
0.10621666 0.65866935 0.16473198 4280756777
0.1079806 0.65756625 0.16490531 4280822827
0.10901438 0.65554899 0.1641646 4280954672
0.10196873 0.65955371 0.16457421 4280625962
0.10325666 0.65860224 0.16510196 4280691755
0.1048345 0.65667921 0.16505362 4280757036
0.10640538 0.65555882 0.1647929 4280953901
0.10820117 0.65479225 0.16478482 4281085744
0.099296078 0.65957487 0.16485088 4280757036
0.1005606 0.65839607 0.1650501 4280559913
0.10207132 0.65715593 0.16526553 4280757549
0.10331941 0.65532154 0.16494559 4280691756
0.10495852 0.65447265 0.16536298 4280756779
0.096048728 0.6594196 0.16531417 4281020206
0.097527429 0.65847367 0.16551045 4280757035
0.099183016 0.65693802 0.16531302 4280560169
0.1007974 0.65568948 0.16537125 4280757549
0.10225804 0.65465754 0.16552767 4280691756
0.094635949 0.65826184 0.16579063 4280954159
0.09592694 0.65696996 0.16551436 4280954158
0.098083876 0.65562952 0.16530038 4280560170
0.099557549 0.6548425 0.16569237 4280758062
0.093512088 0.65691394 0.16612382 4281019952
0.09469872 0.6557169 0.16560827 4281151537
0.090801373 0.65717727 0.16705237 4284442985
0.092005081 0.65558362 0.16652155 4281086260
0.089644797 0.65551549 0.16793673 4286942605
0.088563308 0.65450907 0.16876154 4286679436
0.085860379 0.6547758 0.16968694 4284838003
0.086821586 0.65274912 0.16896082 4285823873
0.084263079 0.6536119 0.17067863 4284772466
0.085506551 0.6518181 0.16996258 4285297272
0.080688246 0.65318763 0.17136653 4284903540
0.082900487 0.65271246 0.17145896 4284904052
0.084000662 0.65129501 0.17110765 4285035125
0.078642234 0.65289617 0.17179444 4285100920
0.079878196 0.65243381 0.17198433 4285035127
0.081471108 0.65099341 0.17190208 4285166713
0.082249798 0.64952791 0.17131284 4285298297
0.076274239 0.65284246 0.17209044 4285100918
0.077527501 0.65221709 0.17239293 4285232504
0.078856304 0.65113407 0.1727633 4285298297
0.080268696 0.64978707 0.17281911 4285495163
0.080894426 0.64826661 0.17234653 4285429883
0.071434304 0.65371346 0.17200667 4285364090
0.072400257 0.65299988 0.17240249 4285364090
0.074657023 0.65210539 0.17278452 4285429883
0.076203711 0.65127182 0.17320122 4285429883
0.077632122 0.64967686 0.17293879 4285495676
0.07884042 0.64797395 0.17277612 4285824642
0.079810135 0.64725757 0.17317347 4285956228
0.07030227 0.65319747 0.17249253 4285430137
0.0715902 0.652246 0.17302027 4285693310
0.073061392 0.65088731 0.17340507 4285956482
0.074622631 0.64946127 0.17341848 4286088068
0.076279402 0.64841795 0.17397048 4286088325
0.077485032 0.64671266 0.17380981 4286417291
0.078625783 0.64550793 0.1745315 4286285962
0.080175273 0.64382017 0.17554781 4286154633
0.064766414 0.65503335 0.17180702 4283454294
0.065732367 0.65431976 0.17220283 4285165169
0.067290299 0.65361953 0.17252465 4285692795
0.068758316 0.65226173 0.17290916 4286022273
0.070480563 0.65058005 0.17328899 4286350982
0.072023168 0.64930409 0.1738124 4286614155
0.073359512 0.64777088 0.17392562 4286614411
0.075249262 0.6469208 0.17513435 4286680461
0.076129667 0.64545137 0.17484351 4286680460
0.077830136 0.64501417 0.1761919 4286548877
0.079174027 0.64347529 0.17630817 4286417548
0.080331765 0.64234704 0.17656538 4286417805
0.062980086 0.6542924 0.17252225 4284046173
0.064652286 0.65331459 0.17302656 4285889662
0.065790601 0.65174276 0.17308621 4286482567
0.067444608 0.65067476 0.17352444 4286548360
0.069057398 0.64923686 0.1741831 4286614155
0.070670433 0.64804524 0.17484407 4286745741
0.071960859 0.64709193 0.17537285 4286745997
0.073560901 0.6460228 0.1759492 4286811791
0.075148977 0.6449613 0.17704727 4286877328
0.076477394 0.64375532 0.17722359 4286943122
0.07817962 0.64281696 0.17800359 4286877587
0.079430997 0.64132714 0.1784315 4286943381
0.080403686 0.64030635 0.17839973 4286943894
0.061692283 0.65324754 0.17339654 4284638823
0.063302189 0.65205824 0.17405623 4286351496
0.064373329 0.65085298 0.17417242 4286614925
0.066056758 0.64974731 0.17496979 4286811791
0.06770464 0.64797801 0.17521478 4286745999
0.0697418 0.6473009 0.17669497 4287008914
0.071029715 0.64634943 0.17722273 4287074707
0.072317638 0.64539796 0.17775047 4286877584
0.073927552 0.64420867 0.17841016 4287008915
0.075537443 0.64301932 0.17906983 4287337880
0.076825373 0.64206785 0.17959759 4287469467
0.078435302 0.6408785 0.18025728 4287272602
0.080023088 0.63895339 0.18003406 4287404188
0.08085341 0.63743645 0.17995729 4287601311
0.061526179 0.65201795 0.17427821 4286285192
0.062492128 0.65130436 0.17467403 4286745998
0.063536003 0.64985704 0.17557664 4286811792
0.064849913 0.64866102 0.17627333 4287140244
0.06645982 0.64747173 0.17693302 4287140244
0.068069719 0.64628237 0.17759269 4287140501
0.069679625 0.64509302 0.17825238 4287272087
0.070941567 0.64438617 0.1786112 4287206294
0.072838582 0.64288813 0.17945637 4287338136
0.074161366 0.64200753 0.17993057 4287601308
0.077947199 0.6398868 0.18100701 4287733152
0.079162434 0.63868856 0.18171602 4286547336
0.54678041 0.61023498 0.14701132 4288452763
0.54802358 0.60976994 0.14720231 4288125081
0.54959065 0.60906565 0.14752601 4288915111
0.54531783 0.60995525 0.14736733 4289901755
0.54077345 0.61059207 0.14741577 4288061093
0.54262251 0.61004215 0.14760031 4288653484
0.53871542 0.61029881 0.14784619 4287798175
0.53968698 0.60958105 0.14824434 4287533977
0.53411877 0.61142766 0.1475548 4289639867
0.53559524 0.61063915 0.14794755 4289245365
0.53757679 0.60977983 0.14833491 4289245877
0.52957433 0.61206448 0.14760324 4289044646
0.5311588 0.61119622 0.14804024 4288518562
0.53270847 0.6106559 0.14825065 4288848555
0.53454709 0.6102044 0.14836721 4289179314
0.52851087 0.61139923 0.14818648 4288913829
0.5303266 0.61060196 0.14854836 4289308333
0.53129822 0.6098842 0.14894651 4288255132
0.52572989 0.61173075 0.14825697 4288980647
0.52670151 0.611013 0.1486551 4289573809
0.52059001 0.6123541 0.14837985 4287599251
0.52281523 0.61187613 0.14847285 4288520866
0.52431959 0.61095899 0.14895283 4287928989
0.51880366 0.61231363 0.14860314 4289309871
0.51977521 0.61159587 0.14900127 4288717476
0.51420695 0.61344248 0.14831173 4288585894
0.51568347 0.61265391 0.14870448 4287995552
0.51766497 0.61179465 0.14909185 4288125856
0.51155347 0.61313576 0.1488166 4288584863
0.51275277 0.61252177 0.14911699 4287861397
0.51463532 0.61221915 0.14912415 4288717734
0.50859904 0.61341405 0.14894341 4288586147
0.51009089 0.61285603 0.1491726 4289638836
0.504251 0.61444986 0.14869021 4287928216
0.50554645 0.61349285 0.14922105 4287796116
0.5074113 0.61279529 0.14950754 4288388766
0.50158709 0.61424154 0.14912711 4288388768
0.50343627 0.61369163 0.14931163 4288323746
0.49759629 0.61528546 0.14882924 4287466638
0.49856794 0.6145677 0.14922737 4288322206
0.49986339 0.61361063 0.14975822 4289638833
0.49407578 0.61471248 0.14961568 4288190363
0.49595836 0.61440992 0.14962283 4288388508
0.49715769 0.61379594 0.14992322 4287730068
0.49164164 0.61515051 0.14957355 4288915113
0.49261323 0.61443275 0.14997168 4288520098
0.48866433 0.6150831 0.14994569 4287928729
0.49021396 0.61454278 0.15015613 4287862936
0.49147454 0.61391377 0.15046039 4289508018
0.483796 0.61595917 0.14986143 4289703851
0.4853631 0.61525488 0.15018512 4287730321
0.48761618 0.61464834 0.15036535 4288191132
0.48909268 0.61385977 0.1507581 4287730837
0.48173797 0.61566591 0.15029186 4287795603
0.48298123 0.61520088 0.15048285 4288321436
0.48454827 0.61449659 0.15080655 4289177764
0.47870839 0.61609048 0.15032415 4287665046
0.48018488 0.61530191 0.15071692 4288191135
0.48216641 0.61444265 0.15110429 4287729817
0.47254467 0.61792362 0.14970906 4289506480
0.47384006 0.61696655 0.1502399 4289242534
0.47604653 0.61642474 0.15037978 4289703854
0.47756973 0.6155715 0.15081286 4287730839
0.47140595 0.61740458 0.15019777 4287927704
0.47237757 0.61668682 0.1505959 4289966511
0.46805245 0.6180684 0.15009737 4288124823
0.46902409 0.61735064 0.1504955 4288454300
0.46447966 0.61798745 0.15054394 4289308842
0.46593925 0.61749208 0.15073262 4288585375
0.46147621 0.61816597 0.15074617 4288585631
0.46305197 0.61737972 0.1511265 4287795604
0.45879659 0.61810523 0.15108112 4287533456
0.46028844 0.61754721 0.15131029 4288716960
0.46193069 0.61669672 0.1517285 4288124568
0.45425215 0.61874211 0.15112954 4289047978
0.45613474 0.6184395 0.15113671 4288389535
0.45733401 0.61782557 0.1514371 4288849573
0.45154643 0.61892736 0.15129456 4287927189
0.45318872 0.61807686 0.15171278 4288455071
0.45468059 0.61751878 0.15194197 4287468435
0.45040777 0.61840838 0.15178327 4288256153
0.45137936 0.61769062 0.1521814 4287663759
0.44589674 0.61929256 0.15165436 4289441711
0.44829747 0.61860716 0.15187386 4288782755
0.44926909 0.61788934 0.15227199 4289045927
0.44029504 0.62089181 0.15114219 4287401100
0.44186214 0.62018752 0.15146589 4289111970
0.4434292 0.61948323 0.15178959 4287928214
0.43699384 0.62106359 0.15138163 4288454043
0.43885863 0.6203661 0.15166812 4287994006
0.44072345 0.61966854 0.15195461 4289308323
0.43301874 0.62195992 0.15118574 4288322457
0.43488356 0.62126237 0.15147223 4289374885
0.43585515 0.62054461 0.15187034 4288124817
0.42904368 0.62285626 0.15098982 4287927187
0.43001527 0.6221385 0.15138794 4290098356
0.43217784 0.62144768 0.15163723 4287598477
0.42547086 0.62277532 0.1514364 4287203464
0.42729646 0.62244678 0.15146799 4288914334
0.42276514 0.62296057 0.15160142 4288914083
0.4243322 0.62225628 0.15192512 4287861394
0.42589924 0.62155199 0.15224881 4289177251
0.42065483 0.62315935 0.15169199 4287401098
0.42162645 0.62244159 0.15209012 4288848547
0.41578656 0.62403548 0.15160774 4288453788
0.41730976 0.62318218 0.15204084 4287532687
0.41862297 0.62262011 0.15229234 4288716960
0.41310695 0.62397474 0.15194267 4287729809
0.41497174 0.62327719 0.15222915 4288190616
0.41042733 0.623914 0.1522776 4289702568
0.41191918 0.62335598 0.15250678 4288189590
0.40897322 0.62299329 0.15308285 4287664266
0.41085574 0.62269074 0.15309002 4288518552
0.40641585 0.62234354 0.15381816 4289308323
0.40793067 0.62213123 0.15380202 4287993231
0.40430558 0.62254232 0.15390874 4292135887
0.40527716 0.6218245 0.15430687 4287925137
0.40251574 0.62159759 0.1547675 4294835963
0.40413851 0.62130553 0.15479559 4293058524
0.39932248 0.62168962 0.15505117 4293717231
0.40029407 0.6209718 0.1554493 4294770683
0.39537352 0.6223399 0.1550252 4289441457
0.39694062 0.62163562 0.1553489 4290032571
0.39818382 0.62117058 0.15553989 4290230721
0.39180073 0.62225896 0.15547177 4288651428
0.39432538 0.62190515 0.15544486 4289112494
0.39612579 0.62087739 0.15597032 4289704375
0.3897427 0.62196571 0.15590221 4288322206
0.39125752 0.62175345 0.15588605 4288454049
0.38616988 0.62188476 0.15634878 4288190368
0.38799548 0.62155622 0.15638039 4288256414
0.38249257 0.62278783 0.15611567 4288190368
0.38346416 0.62207007 0.1565138 4287729817
0.38503122 0.62136579 0.15683749 4287927196
0.38659829 0.6206615 0.15716121 4287927196
0.37973455 0.62346512 0.15594083 4288387746
0.38102999 0.62250811 0.15647167 4287861916
0.3823255 0.6215511 0.15700251 4287402135
0.37227532 0.62625527 0.15479489 4294901755
0.37324694 0.62553751 0.15519302 4294440949
0.37507516 0.62438118 0.15580571 4289110444
0.37730041 0.62390316 0.15589869 4288387232
0.37859589 0.62294614 0.15642953 4287861401
0.37956747 0.62222838 0.15682766 4287664022
0.36956957 0.62644058 0.15495989 4294770683
0.37086505 0.62548357 0.15549073 4294441206
0.36655739 0.62670112 0.15510547 4294770684
0.36781803 0.62607211 0.15540975 4294770683
0.36204779 0.62700993 0.15538049 4287797409
0.36361489 0.62630564 0.15570419 4288717740
0.36543614 0.62601811 0.15570748 4293914866
0.36669675 0.6253891 0.15601175 4294770683
0.36099967 0.62657517 0.15580016 4287533210
0.36247623 0.62578666 0.15619291 4287795358
0.35820341 0.62667626 0.15603422 4287399308
0.359175 0.62595844 0.15643235 4287267213
0.35582152 0.62662226 0.15633194 4294770169
