# .PCD v0.7 - Point Cloud Data file format
VERSION 0.7
FIELDS x y z rgb
SIZE 4 4 4 4
TYPE F F F U
COUNT 1 1 1 1
WIDTH 1091
HEIGHT 1
VIEWPOINT 0 0 0 1 0 0 0
POINTS 1091
DATA ascii
0.21060596 0.72069961 0.16505711 4294901753
0.21128199 0.71957344 0.16502494 4294901753
0.2120716 0.71802986 0.16415739 4294901753
0.21308808 0.71713108 0.16324601 4294901753
0.22189319 0.70246363 0.16282688 4294769917
0.22223343 0.70008308 0.16370513 4292401115
0.2231736 0.69912153 0.16336222 4294572537
0.28677371 0.59381998 0.16143143 4294901755
0.28743231 0.59249467 0.16057017 4294901755
0.28849593 0.59151733 0.15965649 4294901755
0.30204228 0.56895196 0.15901168 4294901755
0.302735 0.56711709 0.15971845 4294901755
0.30363134 0.56560177 0.16013104 4294901755
0.30435088 0.56454009 0.16059473 4294901755
0.30908319 0.55665702 0.16036947 4290557879
0.30998459 0.55515546 0.16032656 4285490796
0.310886 0.55365396 0.16028365 4282860362
0.31156203 0.55252779 0.16025147 4282006081
0.32373086 0.53225708 0.15967222 4282535758
0.32440689 0.53113097 0.15964004 4282338379
0.3249597 0.52896255 0.15881522 4282272074
0.32658812 0.5280847 0.15868115 4282206026
0.32778025 0.52607781 0.15778652 4282469198
0.32845756 0.52494949 0.15775427 4282206026
0.1019743 0.89799142 0.1706222 4282008647
0.10265162 0.89686316 0.17058995 4282271819
0.10393649 0.89534885 0.17092693 4281943109
0.10499477 0.89421207 0.17127469 4281877573
0.11558613 0.87656903 0.17077053 4280758062
0.11648753 0.87506753 0.17072761 4280955441
0.11687525 0.87316954 0.16991289 4281416506
0.11800411 0.87128907 0.16985916 4282007875
0.11868142 0.87016082 0.16982692 4281876546
0.14238748 0.83067143 0.16869847 4282272075
0.14398004 0.82927072 0.16941895 4282074695
0.16403605 0.7958616 0.16846424 4286873982
0.16448674 0.79511082 0.16844279 4288124049
0.2058294 0.72499043 0.16567856 4294901753
0.20650671 0.72386211 0.16564631 4294901753
0.20797896 0.72266179 0.16637251 4294901753
0.20891698 0.72068191 0.16606241 4294901753
0.20944177 0.71897298 0.16550662 4294901753
0.28598654 0.59332085 0.16236167 4294901755
0.30904433 0.55366045 0.16046725 4282663756
0.30972165 0.5525322 0.16043501 4281808959
0.31064978 0.55100006 0.16085522 4281809727
0.31135234 0.54902434 0.16121894 4282271560
0.31272894 0.54756671 0.16168387 4282272846
0.31610915 0.54193598 0.16152295 4282470227
0.31678522 0.54080981 0.16149078 4282536020
0.31732368 0.53865957 0.16066945 4282404947
0.31822675 0.53715521 0.16062646 4282470996
0.31994459 0.53593373 0.16067836 4282536018
0.32118848 0.53405631 0.16028759 4282535504
0.3219133 0.53222334 0.15985467 4282535504
0.32259062 0.53109509 0.15982243 4282469711
0.10389493 0.89297831 0.17142522 4282008647
0.10487667 0.89135838 0.17184213 4282008390
0.10581842 0.88979733 0.17202911 4282073927
0.10630421 0.88775575 0.17190683 4282073670
0.10796446 0.88624787 0.17262127 4282073924
0.10886584 0.88474637 0.17257836 4282008131
0.10999259 0.88286942 0.17252474 4281744959
0.1103681 0.88098615 0.17171338 4281481787
0.11191636 0.87939292 0.17171898 4281547579
0.1134237 0.87794232 0.17150135 4280823854
0.11405466 0.87605429 0.17094161 4280823342
0.11495775 0.87454993 0.17089862 4280954928
0.11586083 0.87304556 0.17085563 4281087027
0.14227615 0.82904315 0.16959822 4282469198
0.14308338 0.82771397 0.17002344 4282074695
0.14402018 0.82618654 0.17090496 4282074440
0.1627982 0.79611325 0.16941594 4283717713
0.20662117 0.72185773 0.16653532 4294901753
0.30979896 0.54998499 0.16162392 4282337094
0.31082693 0.54869115 0.16183987 4282272586
0.31175464 0.54675037 0.16222627 4282208077
0.31220824 0.54476243 0.16210553 4282470479
0.31311134 0.54325807 0.16206254 4282469711
0.31558439 0.54160321 0.16214311 4282404434
0.31626043 0.54047704 0.16211094 4282536277
0.31679794 0.5383262 0.16129076 4282339411
0.31770101 0.53682184 0.16124777 4282405204
0.31837833 0.53569359 0.16121553 4282470997
0.10419805 0.890055 0.17260338 4282139463
0.10487535 0.88892674 0.17257114 4282139717
0.10577845 0.88742238 0.17252815 4282073924
0.10670954 0.88508224 0.17334425 4282139717
0.10761207 0.88357884 0.17330129 4282007875
0.10885064 0.88233531 0.17321511 4281810752
0.10984235 0.88065279 0.1723347 4281613373
0.1109712 0.87877232 0.17228097 4281482300
0.14212774 0.82687199 0.17079787 4282074440
0.14288735 0.8256321 0.17145604 4282074440
0.14303876 0.82417184 0.17204458 4282140233
0.15988952 0.7960754 0.17054869 4283125323
0.14284185 0.82330179 0.17288037 4282008902
0.14353272 0.82155186 0.17326067 4281877060
0.14432587 0.81964278 0.1738663 4281811522
0.15605451 0.79883617 0.17252012 4281613889
0.15818323 0.79836971 0.17231391 4281548350
0.14256421 0.8201198 0.17421961 4281745729
0.14314124 0.81875551 0.17439091 4281416765
0.14405853 0.81703752 0.17467655 4281021752
0.15409304 0.80095887 0.17459172 4281877574
0.15443471 0.79975289 0.17418264 4281614402
0.15552875 0.7985028 0.17314145 4281548609
0.14382884 0.81496948 0.17518911 4281088056
0.14564405 0.81322283 0.17588668 4281614141
0.15218242 0.80105418 0.17479147 4281943367
0.14529793 0.81070852 0.17601362 4282140485
0.14620429 0.80841637 0.17682755 4282205511
0.1473005 0.80688506 0.1767647 4282008644
0.14815958 0.80515927 0.17673448 4282074437
0.14919364 0.8039524 0.17666654 4282140230
0.1507163 0.80210948 0.17601648 4282009159
0.18839164 0.7691406 0.15764731 4284769900
0.18929644 0.76763344 0.15760425 4284900716
0.19042741 0.76574945 0.15755041 4284769642
0.19133219 0.76424229 0.15750735 4284770154
0.1859438 0.77018958 0.15925737 4284770412
0.18684153 0.76825255 0.1586246 4284638568
0.18810228 0.7666716 0.15830855 4284638311
0.18897235 0.76493227 0.15827547 4284572519
0.18987827 0.7634232 0.15823235 4284572775
0.19114634 0.76152331 0.15900977 4284638567
0.19227728 0.75963932 0.15895589 4284901740
0.19318207 0.75813216 0.15891282 4284835947
0.19386065 0.75700176 0.15888052 4284835947
0.1717338 0.79083186 0.16142732 4294901753
0.17241238 0.78970146 0.16139501 4294901753
0.17300144 0.78810388 0.16096413 4294901753
0.17390664 0.786596 0.16092104 4294901753
0.17535293 0.78480315 0.16125505 4294901753
0.1762577 0.78329599 0.16121197 4294901753
0.18259118 0.77274573 0.16091049 4285428602
0.18398553 0.77102876 0.16054541 4284836463
0.18428008 0.76930648 0.1597251 4284573291
0.18543181 0.76769137 0.15952066 4284375910
0.18975618 0.76079124 0.15916516 4284506982
0.19088928 0.7589038 0.15911123 4284638568
0.19179577 0.75739378 0.15906808 4284770154
0.19273563 0.75583655 0.15972605 4284770154
0.19386762 0.75395083 0.15967213 4284835947
0.19493492 0.75217658 0.15985522 4284835947
0.19593672 0.75051486 0.16027522 4285099119
0.19684149 0.74900764 0.16023216 4285164912
0.19797249 0.74712372 0.16017832 4285427314
0.19910344 0.74523973 0.16012448 4292860376
0.20000824 0.74373251 0.16008142 4294967289
0.20130615 0.74197084 0.1595867 4294901753
0.2022447 0.73999637 0.15927337 4294901753
0.20343836 0.73862439 0.15961944 4294901753
0.20434314 0.73711723 0.15957637 4294901753
0.20522934 0.73533815 0.15968353 4294901753
0.21923487 0.71170497 0.1591662 4294967291
0.29478419 0.58585554 0.15556996 4294769915
0.29591516 0.58397156 0.15551612 4294901245
0.29681993 0.5824644 0.15547305 4294901755
0.29772472 0.58095717 0.15542999 4294901755
0.29840332 0.57982683 0.15539768 4294901755
0.33798754 0.5138877 0.15351343 4282140748
0.33889234 0.51238054 0.15347035 4282272334
0.34002331 0.51049656 0.15341651 4282074955
0.34115431 0.50861257 0.15336269 4282206028
0.34205905 0.50710541 0.15331961 4282140235
0.34273764 0.50597501 0.15328731 4282074444
0.067838207 0.96024013 0.16676421 4282009676
0.069157593 0.95866096 0.16710317 4282009676
0.16913699 0.79149741 0.16194226 4294901753
0.17028023 0.79040921 0.16195652 4294901753
0.17188562 0.7893675 0.16201751 4294901753
0.17247421 0.78776962 0.16158721 4294901753
0.17337941 0.78626168 0.16154411 4294901753
0.17445411 0.78410947 0.1618128 4294573817
0.17511196 0.78236061 0.16172652 4293721077
0.17570895 0.78054988 0.16162942 4294311933
0.17684205 0.77866244 0.1615755 4294639611
0.17859715 0.77697605 0.16229545 4294705146
0.17950192 0.77546889 0.16225237 4294309360
0.18040672 0.77396172 0.1622093 4289241763
0.18169846 0.77220947 0.16171519 4285558389
0.18262488 0.77025384 0.16140328 4284836205
0.18323703 0.7688188 0.16087206 4284573291
0.18416835 0.767672 0.16062821 4284310119
0.19164677 0.75521451 0.16027224 4284704361
0.19277988 0.75332701 0.1602183 4284638568
0.19400987 0.7512852 0.16062745 4284835947
0.19485083 0.74988782 0.16082127 4284901739
0.19578083 0.7480939 0.16075647 4285033325
0.19709063 0.74640179 0.16073532 4287004806
0.19802056 0.74460781 0.16067043 4294834935
0.19892617 0.74309921 0.16062728 4294901753
0.19996156 0.74116862 0.1604439 4294901753
0.20090093 0.73919219 0.16013099 4294901753
0.20209591 0.73781914 0.16047645 4294901753
0.20300151 0.73631054 0.16043332 4294901753
0.20432483 0.73451871 0.1606382 4294901753
0.20506202 0.73289108 0.16103567 4294901753
0.21456225 0.71706569 0.16058345 4294901753
0.21546704 0.71555853 0.16054039 4294901753
0.21632282 0.71351433 0.16009793 4294308847
0.21695364 0.71184486 0.15966614 4288715677
0.2185154 0.71047413 0.16004506 4292597723
0.21953855 0.70877624 0.16034658 4294967038
0.29218453 0.58836889 0.15658984 4294901754
0.29245505 0.58668202 0.15577289 4294901754
0.29336151 0.58517206 0.15572976 4292993248
0.29449463 0.58328456 0.15567581 4290887364
0.29540113 0.58177453 0.15563266 4293125092
0.29676083 0.57950956 0.15556794 4294901500
0.29779977 0.57819092 0.15578648 4294901755
0.29919657 0.57668823 0.15625605 4294901755
0.30010134 0.57518107 0.15621299 4294901755
0.33335209 0.51979226 0.1546302 4282074954
0.33403069 0.51866186 0.15459789 4282074954
0.33516172 0.51677793 0.1545441 4282272334
0.33606642 0.51527071 0.15450099 4282206541
0.33664578 0.51306951 0.15366937 4282009161
0.3377789 0.51118195 0.15361543 4282206541
0.33868533 0.50967199 0.15357228 4282140748
0.33959183 0.50816196 0.15352914 4282074955
0.34072495 0.50627446 0.1534752 4282074700
0.34229454 0.50448394 0.15393648 4282008651
0.34353092 0.50283647 0.15414567 4282140237
0.34443566 0.5013293 0.15410261 4282074444
0.34534046 0.49982214 0.15405954 4282074444
0.34782863 0.49567738 0.15394109 4282140750
0.3485072 0.49454701 0.1539088 4282140750
0.34941196 0.49303982 0.15386572 4282206028
0.35054299 0.49115583 0.15381193 4282205515
0.35144773 0.48964867 0.15376882 4282402637
0.35205588 0.48739943 0.15293583 4282402637
0.35318899 0.48551199 0.15288189 4282402638
0.35409546 0.48400193 0.15283874 4282600017
0.35500196 0.48249194 0.15279558 4282665553
0.35632744 0.48110807 0.15326853 4282599760
0.35755503 0.47947523 0.15347812 4282403408
0.067310482 0.95990545 0.16738787 4282009676
0.068630368 0.95832664 0.16772625 4281943883
0.068822332 0.95617336 0.16791444 4282140748
0.070553154 0.95453197 0.1686333 4282074955
0.070782982 0.95292139 0.16852102 4282009419
0.071240664 0.95093119 0.16839786 4282272077
0.072556846 0.94936079 0.1687353 4282403406
0.073871732 0.94779247 0.16907275 4282074440
0.13494454 0.84605789 0.16616561 4282403405
0.13584931 0.84455067 0.16612254 4282140233
0.13652791 0.84342033 0.16609024 4282074694
0.16619408 0.79275852 0.16387795 4294770679
0.16766553 0.79212797 0.1629101 4294901753
0.17650367 0.7774055 0.1624894 4294180859
0.17718354 0.77627295 0.16245703 4294377467
0.17809001 0.77476299 0.1624139 4294705146
0.17922312 0.77287549 0.16235995 4294375156
0.1803562 0.77098799 0.16230601 4290689724
0.20301813 0.73323792 0.16122727 4294901753
0.20413889 0.73179871 0.16214114 4294901753
0.20489472 0.73044401 0.16238782 4294901753
0.21350875 0.7163977 0.16182843 4294901753
0.21416706 0.71474892 0.16144107 4294835961
0.21505192 0.71282804 0.16083401 4291150529
0.21774837 0.70870042 0.1605261 4288715941
0.21870123 0.70773351 0.16088167 4290163642
0.21943395 0.7061128 0.16127965 4291281607
0.21944959 0.70404595 0.16134292 4289438893
0.22067265 0.70325267 0.16208483 4293454058
0.28949186 0.58952278 0.15836088 4294901755
0.29021552 0.58779186 0.15764309 4294901754
0.29797155 0.57506526 0.15670738 4294901755
0.2986514 0.57393277 0.15667501 4294901755
0.29982576 0.57245207 0.15744497 4294901755
0.30016187 0.57042551 0.15803435 4294901755
0.3011983 0.56911373 0.15825172 4294901755
0.32885042 0.52242905 0.15653539 4282206026
0.33064064 0.5208658 0.15598615 4282140747
0.33157751 0.51921684 0.15560794 4282074954
0.33264428 0.5173077 0.15505691 4282140748
0.33355075 0.51579773 0.15501375 4282075469
0.34170905 0.50220776 0.15462542 4282074444
0.34280428 0.50050467 0.15451342 4282139982
0.34423909 0.49860004 0.15420571 4282139725
0.34514555 0.49709001 0.15416256 4282205517
0.34605205 0.49558002 0.15411942 4282140237
0.34718516 0.49369249 0.15406547 4282271821
0.34831825 0.49180502 0.15401153 4282336844
0.34922472 0.49029499 0.15396839 4282336844
0.3499046 0.4891625 0.15393603 4282336844
0.069806442 0.9521066 0.16906466 4281943883
0.070712924 0.95059657 0.1690215 4282140748
0.071943551 0.94855744 0.16942877 4282271820
0.072898202 0.94697273 0.16961628 4281943623
0.073357865 0.94497693 0.16949414 4282207307
0.074264333 0.94346696 0.16945098 4281878340
0.075397424 0.94157946 0.16939706 4282075208
0.076530516 0.93969196 0.16934311 4282140746
0.077436998 0.93818194 0.16929996 4282009418
0.07857009 0.93629444 0.16924603 4282075470
0.079703189 0.93440694 0.16919209 4282272848
0.080609672 0.93289691 0.16914894 4282338127
0.08231847 0.93129909 0.1698655 4282140748
0.083223246 0.92979187 0.16982244 4282206028
0.084128022 0.9282847 0.16977936 4282009162
0.085258998 0.92640078 0.16972552 4282140491
0.086389981 0.9245168 0.16967168 4282140235
0.087294757 0.92300963 0.16962862 4282008648
0.088199548 0.92150241 0.16958556 4282008647
0.089330532 0.91961843 0.16953172 4281877061
0.090235308 0.91811126 0.16948865 4281680195
0.12258127 0.86422962 0.16794895 4282008901
0.12348606 0.86272246 0.16790587 4281943108
0.12439083 0.86121523 0.1678628 4282008901
0.12506942 0.86008489 0.1678305 4282074694
0.12665279 0.85744733 0.16775513 4282140487
0.12755758 0.8559401 0.16771206 4282074694
0.12846234 0.85443294 0.167669 4282140487
0.12936714 0.85292578 0.16762592 4282206280
0.13049813 0.85104179 0.16757208 4282206026
0.13162909 0.84915781 0.16751826 4282403405
0.13228843 0.84722704 0.16695492 4282337612
0.13380158 0.84552038 0.1667172 4282403405
0.13470717 0.84401178 0.16667405 4282074694
0.13533255 0.84255999 0.16661088 4282008901
0.13613136 0.84040934 0.16650604 4282140487
0.13726446 0.83852184 0.16645209 4282206280
0.13851896 0.83705646 0.16679135 4282206280
0.13977213 0.83559322 0.16713063 4282272073
0.16423213 0.79359931 0.1651684 4286874752
0.16517586 0.79263413 0.16482422 4289646277
0.20256802 0.73034656 0.1630443 4294901753
0.20353508 0.72935945 0.16339752 4294901753
0.20472743 0.72799689 0.16373996 4294901753
0.21168616 0.71578139 0.16300951 4294901753
0.21208602 0.71449155 0.16259123 4294901753
0.22123973 0.70049089 0.16295396 4290953673
0.22360636 0.69469422 0.16234212 4294901755
0.28728881 0.59046686 0.15980995 4294901755
0.28755021 0.58878392 0.15899904 4294901755
0.29910776 0.56953138 0.15844889 4294901755
0.30027655 0.56841612 0.15892553 4294901755
0.30131295 0.56710559 0.15914237 4294901755
0.32574207 0.52641171 0.15797952 4282271819
0.32642063 0.52528131 0.15794721 4282337612
0.32698193 0.52309889 0.15712205 4282140233
0.32766178 0.52196634 0.15708968 4282206026
0.082310885 0.9282425 0.16996576 4281943369
0.082990736 0.92711002 0.16993339 4282009162
0.083897218 0.92559999 0.16989024 4282140492
0.0848037 0.92408997 0.1698471 4282140234
0.085936785 0.92220247 0.16979316 4282074440
0.087069891 0.92031497 0.16973922 4281943110
0.087976359 0.918805 0.16969608 4281811523
0.088882841 0.91729498 0.16965292 4281680194
0.090576164 0.9157263 0.17036854 4281614402
0.091707177 0.91384232 0.17031474 4281680195
0.092838109 0.91195834 0.17026088 4281811781
0.093742907 0.91045117 0.1702178 4281745988
0.094647683 0.90894401 0.17017473 4281811525
0.095778689 0.90706003 0.17012094 4281942854
0.096909642 0.90517604 0.17006706 4281942854
0.097814418 0.90366888 0.17002399 4282008647
0.098719209 0.90216166 0.16998093 4282074440
0.099850215 0.90027773 0.16992714 4282008905
0.10075497 0.89877051 0.16988401 4281942856
0.11862441 0.86900377 0.16903341 4282073924
0.1195292 0.86749655 0.16899034 4282205510
0.12043398 0.86598939 0.16894728 4282073923
0.12132228 0.86409229 0.16863956 4282139716
0.12196924 0.86217993 0.16807798 4282139717
0.12287572 0.86066991 0.16803482 4282139717
0.12414364 0.85918385 0.1683726 4282205510
0.125156 0.85728884 0.16819172 4282271303
0.12676746 0.85543913 0.16864578 4282139718
0.12742074 0.85351616 0.16808386 4282140232
0.12831457 0.85160995 0.16777593 4282206026
0.12922105 0.85009992 0.16773278 4282206026
0.13012752 0.8485899 0.16768962 4282206026
0.13080738 0.84745741 0.16765726 4282271819
0.13828583 0.83499992 0.16730128 4282206280
0.13953935 0.83353782 0.16763975 4282140488
0.14079158 0.83207786 0.16797823 4282206026
0.16363734 0.79402161 0.16689074 4286616720
0.20151256 0.72967732 0.16429161 4294901753
0.20219243 0.72854477 0.16425924 4294901753
0.20390017 0.72695214 0.16497421 4294901753
0.20480494 0.72544491 0.1649311 4294901753
0.20932883 0.71790904 0.16471577 4294901753
0.20944424 0.71646476 0.16391405 4294901753
0.22281477 0.69419229 0.1632776 4293782766
0.28373808 0.59209985 0.16067684 4294901755
0.28489265 0.59140891 0.16072102 4294901755
0.28606257 0.59006697 0.16036607 4294901755
0.30058238 0.56525445 0.15927649 4294901753
0.30161893 0.5639447 0.15949272 4294901753
0.30301097 0.56245983 0.15995766 4294901753
0.30391577 0.56095266 0.1599146 4294901753
0.30482057 0.55944544 0.15987153 4294901753
0.30595154 0.55756152 0.1598177 4294704374
0.30685496 0.55523491 0.15970857 4287005061
0.30753356 0.55369383 0.15964325 4283846491
0.30833885 0.55153781 0.15977101 4281742910
0.30949628 0.55044514 0.16024637 4281809215
0.31899652 0.53461981 0.15979415 4282404432
0.31967512 0.53348941 0.15976185 4282469968
0.32022375 0.5313223 0.15894006 4282469711
0.32165015 0.52976775 0.15893824 4282403918
0.32336858 0.5285483 0.15898862 4282206539
0.324099 0.52670616 0.15855548 4282206026
0.32483065 0.52486193 0.15812224 4282206026
0.08877109 0.91566056 0.17055604 4281483330
0.089450963 0.91452801 0.17052367 4281614659
0.090357445 0.91301805 0.17048053 4281680450
0.091263913 0.91150802 0.17043738 4281680449
0.092397004 0.90962052 0.17038345 4281877828
0.093530111 0.90773302 0.17032951 4281680195
0.094436578 0.906223 0.17028636 4281877574
0.095343061 0.90471303 0.1702432 4282008647
0.096249528 0.90320301 0.17020006 4282140235
0.097609252 0.90093803 0.17013533 4282140234
0.098515727 0.89942801 0.17009218 4281877062
0.099422209 0.89791805 0.17004904 4281877063
0.10053667 0.89575809 0.17014562 4282140233
0.10180685 0.89396662 0.17063209 4281745732
0.10283104 0.89228362 0.17127873 4281942854
0.10350963 0.89115322 0.17124642 4282139463
0.11187886 0.87721181 0.17084804 4280954930
0.11300984 0.87532783 0.1707942 4280823344
0.11339809 0.8734234 0.1699823 4280955186
0.11484802 0.87162536 0.16996227 4281679166
0.11607069 0.87020594 0.16995306 4281942338
0.11711756 0.86885971 0.16947155 4282073924
0.11800499 0.86696297 0.16916448 4282270790
0.11913806 0.86507547 0.16911054 4282204997
0.12027118 0.86318797 0.16905659 4282205253
0.12095103 0.86205548 0.16902424 4282139717
0.13989103 0.83051926 0.16858701 4282337612
0.14070101 0.82918465 0.16901243 4282469198
0.14151049 0.82785171 0.16943754 4282206026
0.16176686 0.79491645 0.16807503 4287203972
0.20298715 0.72540033 0.16511922 4294901753
0.20395382 0.72441787 0.1654705 4294901753
0.2045958 0.7227416 0.16573919 4294901753
0.20495223 0.72091323 0.1656242 4294901753
0.2066524 0.71956259 0.16566087 4294901753
0.20774616 0.71747285 0.16489267 4294901753
0.28321034 0.59176522 0.16130048 4294901755
0.28366357 0.59101021 0.1612789 4294901755
0.30587226 0.55401516 0.16022176 4283649363
0.30655211 0.55288267 0.16018939 4282465350
0.30781144 0.55120337 0.16039428 4281480251
0.30896956 0.55011117 0.16086885 4282072641
0.30922157 0.54806066 0.16118976 4282469194
0.31025237 0.54676282 0.16140521 4282075721
0.3136453 0.54111087 0.16124371 4282403918
0.31436661 0.53928053 0.16081268 4282470227
0.31508914 0.53744805 0.16038154 4282273618
0.31599563 0.53593802 0.1603384 4282405204
0.31846976 0.53428578 0.16041663 4282404434
0.31914836 0.53315544 0.16038433 4282404177
0.31969604 0.53098768 0.15956372 4282403919
0.32060251 0.52947766 0.15952057 4282403918
0.099953078 0.89460623 0.17122082 4282008647
0.10063293 0.89347374 0.17118847 4281811268
0.10230429 0.89194959 0.17190121 4281942854
0.10203831 0.88975215 0.17200427 4282074181
0.10278739 0.88806432 0.17198372 4282074181
0.10445476 0.88655031 0.17269503 4282074180
0.10784765 0.88089836 0.17253347 4281613373
0.10875243 0.87939119 0.1724904 4281416764
0.10965722 0.87788403 0.17244732 4281482044
0.11036742 0.87620765 0.17159651 4281151796
0.11173407 0.8744812 0.17151262 4280954160
0.11287037 0.87308872 0.17060596 4280955186
0.11400346 0.87120122 0.17055202 4281481787
0.11513656 0.86931372 0.17049807 4281942338
0.13893157 0.82967621 0.16936541 4282271821
0.13974215 0.82834136 0.16979042 4282469198
0.14055224 0.82700813 0.17021513 4282140233
0.14106123 0.82496572 0.17125116 4282008647
0.15779971 0.7970829 0.1704544 4281547323
0.16043656 0.79511333 0.16913405 4287926668
0.20351803 0.72208858 0.16629101 4294901753
0.20442452 0.72057861 0.16624786 4294901753
0.20533097 0.71906859 0.16620471 4294901753
0.30840546 0.5467611 0.16159751 4282469964
0.30931193 0.54525113 0.16155435 4282404172
0.31021839 0.54374111 0.1615112 4282470222
0.1033555 0.88529736 0.17285447 4282139717
0.10403537 0.88416487 0.1728221 4282271303
0.10516846 0.88227737 0.17276816 4281942338
0.10630155 0.88038987 0.17271423 4281744959
0.10720804 0.87887985 0.17267108 4281350971
0.1081145 0.87736988 0.17262793 4281416764
0.10879437 0.87623733 0.17259558 4281809469
0.1403541 0.82410538 0.17181878 4282074437
0.14136492 0.82203692 0.17243154 4282074181
0.15540341 0.79738265 0.17097545 4281679682
0.15727296 0.79674894 0.17107688 4281284151
0.13946559 0.82271808 0.17233264 4282139717
0.14022791 0.82147694 0.17298897 4282008901
0.14099 0.82023859 0.17364421 4281811522
0.15487568 0.79704803 0.17159911 4281614402
0.1399592 0.81886148 0.17380548 4281614403
0.14098476 0.81779164 0.17414865 4281153852
0.14223565 0.81634641 0.17448103 4280956216
0.15196206 0.80014426 0.17401804 4281811781
0.15241444 0.79939067 0.17399651 4281548353
0.14120717 0.81496203 0.17464387 4280956472
0.14245799 0.8135187 0.17497547 4281548861
0.1427215 0.81165254 0.17543106 4281942080
0.14404838 0.8096925 0.17618704 4282271045
0.14834607 0.80253339 0.17598242 4282140487
0.14834726 0.8012476 0.1752018 4282009160
0.15004534 0.8002395 0.17422317 4281943367
0.14279665 0.80867314 0.17636381 4282336583
0.14370313 0.80716318 0.17632066 4282270790
0.14460962 0.80565315 0.17627752 4282139461
0.14574271 0.80376565 0.17622358 4282205510
0.18476775 0.76665449 0.15919542 4284309861
0.18594028 0.76530927 0.15883978 4284309603
0.18684845 0.76379651 0.15879655 4284309603
0.18783998 0.76202321 0.15880932 4284375396
0.18885452 0.75984681 0.15900089 4284506982
0.18976268 0.75833398 0.15895766 4284375396
0.19067088 0.75682116 0.15891443 4284638568
0.17008775 0.78867638 0.16109352 4294901753
0.17122295 0.7867853 0.16103947 4294901753
0.17235819 0.78489429 0.16098544 4294770681
0.18257511 0.76787502 0.1604991 4284507498
0.18378557 0.76634502 0.16020162 4284244581
0.18488285 0.76463878 0.16008942 4284244323
0.18579102 0.76312596 0.16004619 4284178530
0.18666142 0.7612384 0.16001862 4284112737
0.18759592 0.75909823 0.15999267 4284244066
0.18850465 0.75758445 0.15994941 4284178274
0.1894134 0.75607067 0.15990615 4284375396
0.1905807 0.7539255 0.16006735 4284441189
0.19188385 0.75236857 0.16005599 4284638568
0.19256499 0.75123394 0.16002357 4284704361
0.29357401 0.58051836 0.15501268 4290295739
0.29539505 0.57993579 0.15484834 4293717229
0.065727331 0.95910317 0.16718034 4281943883
0.066610791 0.95739013 0.16735151 4282009676
0.067694619 0.95559406 0.16776651 4282009676
0.068602808 0.95408118 0.16772328 4281878090
0.16682878 0.79093796 0.1625278 4293984249
0.16790874 0.78945947 0.16212983 4293131507
0.16881748 0.78794569 0.16208659 4291753454
0.16995336 0.78605348 0.16203247 4290570468
0.17108932 0.78416127 0.16197844 4288270544
0.17199805 0.78264755 0.16193518 4285186495
0.17301187 0.78116608 0.16202028 4283810236
0.17425229 0.77930713 0.16209458 4286830800
0.17514181 0.77752137 0.16220215 4289192410
0.17576696 0.77556801 0.16262212 4292607223
0.17667513 0.77405518 0.1625789 4294377468
0.17781036 0.77216417 0.16252486 4294705146
0.17894556 0.77027315 0.16247082 4294705146
0.18038246 0.76909554 0.16180278 4289439401
0.18129063 0.76758271 0.16175954 4286610306
0.18242583 0.7656917 0.16170551 4284637799
0.18356106 0.76380068 0.16165148 4284244324
0.18436769 0.76224965 0.16147973 4284112994
0.18529133 0.76014465 0.16124387 4283915615
0.18587029 0.75810301 0.16104068 4283981408
0.18678017 0.75658733 0.16099736 4283981408
0.18769002 0.7550717 0.16095406 4284112994
0.18926862 0.75351936 0.16105455 4284244323
0.19062714 0.75161535 0.16104841 4284441446
0.19153588 0.75010157 0.16100515 4284638568
0.19244461 0.74858785 0.1609619 4284770154
0.19364627 0.74672437 0.16099361 4285492593
0.19491318 0.74489039 0.1611111 4293254365
0.19582136 0.74337757 0.16106786 4294901753
0.19672953 0.74186474 0.16102463 4294901753
0.19786476 0.73997366 0.1609706 4294901753
0.19899997 0.73808265 0.16091655 4294901753
0.19990811 0.73656982 0.16087332 4294901753
0.20081632 0.735057 0.1608301 4294901753
0.2015584 0.73333442 0.16103463 4294901753
0.21413717 0.71165121 0.16079566 4288320925
0.21534704 0.71085185 0.16013841 4288386460
0.2162552 0.70933902 0.16009519 4288123803
0.2168617 0.70711273 0.16066597 4287861916
0.29050523 0.5854466 0.15642744 4293716713
0.29134518 0.58384007 0.15625411 4289571501
0.29280594 0.58242941 0.15615144 4289769395
0.2930443 0.58018249 0.15563866 4290098617
0.29480645 0.57872707 0.15595596 4291151047
0.29537478 0.57683533 0.15607175 4292137429
0.29662833 0.57545412 0.15626933 4293979884
0.29723483 0.57322782 0.1568401 4294770169
0.33038306 0.51800972 0.1552622 4282074955
0.33106419 0.51687515 0.15522978 4282206540
0.33219942 0.51498407 0.15517575 4282009417
0.3339237 0.51357102 0.15437409 4281943882
0.33445734 0.51173192 0.15421137 4282074697
0.33557048 0.51016992 0.15414892 4282337099
0.33674276 0.5084728 0.15408485 4282206282
0.33769068 0.50663811 0.15404801 4282074697
0.33854741 0.50491875 0.15401667 4282074443
0.33965981 0.50335795 0.15395427 4282074445
0.34050855 0.50187242 0.15442042 4282074446
0.34150815 0.49947765 0.15473264 4282139983
0.34268072 0.49813247 0.154377 4282139983
0.34381589 0.49624142 0.15432295 4282205516
0.34495112 0.4943504 0.15426892 4282140235
0.34585929 0.49283758 0.15422569 4282403407
0.34676746 0.49132475 0.15418246 4282337358
0.34790266 0.48943374 0.15412842 4282271306
0.34922659 0.48783636 0.15376557 4282271306
0.34974873 0.48588237 0.15321518 4282468686
0.35091966 0.48418733 0.15315117 4282534481
0.3520301 0.48262975 0.15308891 4282534481
0.35288966 0.48090577 0.1530574 4282731860
0.35384125 0.47906518 0.15302038 4282666068
0.35501158 0.47737116 0.15295644 4282797654
0.35569355 0.47623515 0.15292397 4282600531
0.064518571 0.9584223 0.16771832 4281943883
0.065842904 0.9568395 0.16805482 4281943883
0.066714741 0.95477808 0.1683137 4281878089
0.067698054 0.95355082 0.16829993 4281812297
0.06868057 0.95151967 0.16891888 4281878090
0.06981577 0.94962865 0.16886485 4282272334
0.070496924 0.94849402 0.16883242 4282206539
0.16439709 0.79145163 0.16396372 4285975742
0.16547564 0.79056752 0.16346237 4285583036
0.1664235 0.78866994 0.16286752 4283617725
0.16733336 0.78715426 0.16282421 4282767301
0.1684707 0.78525972 0.16277008 4281713341
0.16960804 0.78336519 0.16271594 4282367423
0.17051789 0.7818495 0.16267262 4281122489
0.17174351 0.78043109 0.16301382 4280405699
0.17301874 0.77831388 0.16330305 4281519295
0.17375141 0.77647722 0.16321862 4284796864
0.17466044 0.77496302 0.16317534 4290373854
0.17558886 0.7730009 0.16286479 4290627011
0.17662209 0.77107203 0.16268244 4293848299
0.17753196 0.7695564 0.16263913 4294836218
0.17844184 0.76804078 0.16259582 4294770426
0.17957917 0.76614618 0.16254167 4294572278
0.18071648 0.76425165 0.16248755 4291150528
0.18162635 0.76273602 0.16244423 4286939523
0.18253623 0.76122034 0.16240092 4284636515
0.18367355 0.7593258 0.16234678 4284374114
0.18481088 0.75743121 0.16229264 4284178017
0.18572074 0.75591558 0.16224934 4284046942
0.18640316 0.75477886 0.16221686 4284178015
0.19095249 0.74720061 0.1620003 4285032042
0.19186234 0.74568498 0.16195698 4288518043
0.19299969 0.74379045 0.16190284 4294901496
0.19390954 0.74227476 0.16185954 4294901753
0.19481941 0.74075913 0.16181622 4294901753
0.19595674 0.7388646 0.16176209 4294901753
0.19738594 0.73710763 0.16209331 4294901753
0.19858634 0.73573172 0.16243537 4294901753
0.19949451 0.7342189 0.16239214 4294901753
0.20062971 0.73232788 0.16233811 4294901753
0.20153788 0.73081505 0.16229488 4294901753
0.2122089 0.71303934 0.16178693 4292071888
0.21311706 0.71152651 0.16174369 4288189849
0.21347165 0.70968837 0.16092835 4287532434
0.21438152 0.70817274 0.16088504 4287466641
0.21551885 0.7062782 0.1608309 4287335570
0.21665618 0.70438361 0.16077676 4287270034
0.21811202 0.703206 0.16150592 4287138190
0.21924721 0.70131499 0.16145189 4288059037
0.22193442 0.69623065 0.16162381 4294901501
0.28804117 0.58671856 0.15817721 4294506740
0.28830805 0.5850265 0.15736605 4291082944
0.29490459 0.57403803 0.15705204 4290295737
0.29617494 0.57233781 0.15725775 4291217094
0.29757696 0.57083392 0.15772329 4293717482
0.29825813 0.56969929 0.15769087 4294901755
0.32777363 0.52053255 0.1562859 4282403405
0.32845479 0.51939791 0.15625347 4282272076
0.32936296 0.51788509 0.15621024 4282074696
0.32993442 0.51568568 0.15538459 4282206539
0.33084425 0.51416999 0.15534127 4282009417
0.33152667 0.51303327 0.15530878 4281878088
0.33903307 0.50052917 0.15495147 4282205776
0.3399429 0.49901357 0.15490817 4282139983
0.34108025 0.49711898 0.15485401 4282271056
0.34221759 0.49522445 0.15479988 4282205260
0.34312743 0.49370882 0.15475658 4282074444
0.34403732 0.49219313 0.15471326 4282337615
0.34517464 0.49029857 0.15465912 4282469457
0.068880998 0.94810981 0.16901259 4281944393
0.069563381 0.94697309 0.16898011 4281747270
0.070473246 0.94545746 0.1689368 4281944392
0.071383119 0.94394177 0.16889349 4282009928
0.072520442 0.94204724 0.16883935 4281944134
0.073657773 0.94015265 0.16878521 4282009416
0.075379901 0.93853599 0.16949946 4281878088
0.076288067 0.93702322 0.16945623 4281813068
0.07719624 0.9355104 0.169413 4282141264
0.078104429 0.93399751 0.16936977 4282272850
0.079239637 0.93210649 0.16931574 4282141006
0.080374859 0.93021548 0.16926169 4282206541
0.081055976 0.9290809 0.16922927 4282140748
0.13077834 0.84625375 0.16686243 4282206026
0.13168651 0.84474093 0.1668192 4282206026
0.13259467 0.8432281 0.16677597 4282074439
0.13372989 0.84133708 0.16672193 4282074695
0.13486511 0.83944607 0.16666789 4282140487
0.13577329 0.83793324 0.16662465 4282206280
0.13668145 0.83642042 0.16658142 4282206280
0.16279136 0.79292673 0.16533856 4286814099
0.16324545 0.79217029 0.16531694 4284204982
0.19398744 0.73970848 0.16305737 4294901753
0.19489734 0.7381928 0.16301405 4294901753
0.19603467 0.73629826 0.16295992 4294901753
0.19694453 0.73478264 0.1629166 4294901753
0.19808187 0.73288804 0.16286246 4294901753
0.19979931 0.73127913 0.16357693 4294901753
0.20048046 0.73014456 0.16354452 4294901753
0.2097892 0.71463811 0.1631014 4294901753
0.21073826 0.71263987 0.16279083 4290229175
0.21127491 0.71091115 0.16223447 4287925909
0.21905294 0.69858062 0.16226235 4286809226
0.22023316 0.69724059 0.16260426 4287597974
0.22114134 0.69572777 0.16256103 4290361022
0.28422192 0.59004068 0.15985814 4294901755
0.28469259 0.58863008 0.15943792 4294901755
0.28633994 0.5877285 0.15915766 4294901755
0.28683111 0.58565938 0.1583375 4291806921
0.29524738 0.57163966 0.15793689 4289967029
0.29592976 0.57050294 0.1579044 4290098358
0.29719946 0.56880486 0.15810958 4291413702
0.29836756 0.56686997 0.15851982 4294111211
0.29904652 0.56532747 0.15845484 4294835703
0.29985267 0.56316775 0.15858369 4294901753
0.30125013 0.56167525 0.15904757 4294901753
0.3021583 0.56016243 0.15900435 4294901753
0.3032935 0.55827141 0.15895031 4294901753
0.3044287 0.55638039 0.15889627 4294769910
0.30533686 0.55486757 0.15885304 4288189845
0.32168397 0.52763671 0.1580749 4282206539
0.32281914 0.52574569 0.15802087 4282206283
0.32395437 0.52385467 0.15796682 4282336842
0.32495353 0.52217174 0.15722163 4282206026
0.32593235 0.52095276 0.1572077 4282206026
0.32686517 0.51897097 0.15643184 4282403405
0.32800251 0.51707643 0.15637769 4282206026
0.07172589 0.9415434 0.16977833 4281944135
0.073773079 0.93813324 0.16968088 4281878342
0.074682966 0.93661755 0.16963758 4281943883
0.075820282 0.93472302 0.16958342 4282207056
0.076957613 0.93282843 0.16952929 4282141263
0.077867478 0.9313128 0.16948599 4282272335
0.078777358 0.92979711 0.16944267 4282337614
0.079594508 0.92742687 0.17013696 4282074699
0.080637656 0.92589843 0.17021972 4282074955
0.081752777 0.92433459 0.17015654 4282140234
0.082607634 0.9226169 0.17012595 4282140747
0.083555095 0.92078179 0.17008978 4281943625
0.085201859 0.91943872 0.17038114 4281877575
0.086091384 0.91765296 0.17048872 4281812038
0.087075442 0.91577053 0.17056181 4281746501
0.087870412 0.91408145 0.17070386 4281943623
0.089005612 0.91219044 0.17064981 4281811778
0.090140834 0.91029942 0.17059578 4281877572
0.091049008 0.90878659 0.17055255 4281811780
0.091957167 0.90727377 0.17050932 4281680195
0.093092382 0.90538275 0.17045528 4281745732
0.094227612 0.90349174 0.17040125 4282008650
0.09533979 0.90200382 0.1701684 4282074442
0.096043937 0.90046608 0.17031477 4282074442
0.09717916 0.89857507 0.17026074 4281942854
0.098314382 0.89668399 0.17020671 4282074441
0.098995484 0.89554942 0.17017429 4282140233
0.11556961 0.86794037 0.16938533 4282073924
0.11670484 0.86604935 0.1693313 4282205253
0.11784004 0.86415827 0.16927727 4282139204
0.11874823 0.86264545 0.16923402 4282139461
0.12013847 0.8607856 0.16894299 4282139462
0.12128299 0.85903102 0.16881354 4282074437
0.12219117 0.8575182 0.16877031 4282139974
0.12309933 0.85600537 0.16872708 4282139462
0.12423456 0.85411435 0.16867304 4282139463
0.12489013 0.8521831 0.16811329 4282205769
0.12579943 0.85066843 0.16807 4282140233
0.12675357 0.84882212 0.16803348 4282140233
0.12811889 0.84709835 0.16794945 4282074440
0.12927487 0.84567881 0.16703892 4282074440
0.13041221 0.84378421 0.16698478 4282140233
0.13154952 0.84188968 0.16693065 4282008647
0.13245939 0.84037405 0.16688734 4282206025
0.13336927 0.83885837 0.16684403 4282206280
0.13422306 0.83652246 0.16725396 4282206280
0.13539198 0.83498287 0.16760324 4282206280
0.13625638 0.83324933 0.16757225 4282337612
0.13763009 0.83180022 0.1680354 4282206026
0.13804685 0.83049798 0.1683154 4282206027
0.16006999 0.79381198 0.16726705 4286811268
0.16077206 0.7926113 0.16618887 4284459932
0.16180255 0.79149443 0.16549057 4281518513
0.19842462 0.73048967 0.16374731 4294901753
0.19919583 0.72860521 0.16435981 4294901753
0.19990742 0.72721994 0.16454238 4294901753
0.20101726 0.725429 0.16469663 4294901753
0.20229995 0.72346568 0.16525686 4294901753
0.20570558 0.71779257 0.16509475 4294901753
0.20638672 0.716658 0.16506232 4294901753
0.20718178 0.71510226 0.16419606 4294901753
0.20871486 0.71397603 0.16365477 4294572790
0.20911555 0.71268082 0.16323841 4288912803
0.28369319 0.58970547 0.16048296 4294901755
0.28416339 0.58829457 0.16006333 4294901755
0.29737249 0.56566316 0.15903726 4290230195
0.29805487 0.56452644 0.15900478 4290953918
0.29932326 0.56283206 0.15920924 4294375411
0.30072138 0.56134003 0.15967239 4294770683
0.30162954 0.55982715 0.15962917 4294770681
0.30276477 0.55793613 0.15957512 4294770682
0.30367061 0.55560267 0.15946743 4290426035
0.30435121 0.55405664 0.15940274 4285556331
0.30480412 0.55206537 0.15928428 4282464578
0.30609506 0.55055362 0.15996811 4281677116
0.3067762 0.54855245 0.15986824 4282139204
0.30761045 0.5474323 0.16054377 4282666829
0.31101611 0.54175919 0.16038166 4282470223
0.31192428 0.54024637 0.16033843 4282469711
0.31305945 0.53835535 0.16028439 4282469713
0.31396767 0.53684253 0.16024116 4282272848
0.31451038 0.53467846 0.15942301 4282338642
0.31653976 0.5337739 0.15951908 4282405204
0.31767496 0.53188288 0.15946503 4282338384
0.31858313 0.53037006 0.1594218 4282403920
0.31913447 0.52819395 0.15860213 4282403919
0.32071355 0.52680045 0.15862387 4282272332
0.32184696 0.52515978 0.15858932 4282140746
0.32342568 0.5235194 0.15859164 4282271049
0.32398605 0.52133048 0.15777043 4282337612
0.32466844 0.52019376 0.15773794 4282271821
0.084429778 0.91611749 0.1712763 4281943366
0.085339643 0.91460186 0.171233 4282009414
0.086476967 0.91270727 0.17117886 4281877313
0.087386839 0.91119164 0.17113554 4281811520
0.088296704 0.90967602 0.17109223 4281943107
0.089434035 0.90778142 0.17103809 4281745730
0.090571374 0.90588689 0.17098396 4281680194
0.091481216 0.90437126 0.17094065 4281613889
0.095575631 0.89755082 0.17074575 4281943108
0.096485488 0.89603519 0.17070244 4282008902
0.097395353 0.89451957 0.17065912 4282074439
0.099073283 0.89298785 0.17136988 4281680194
0.09998145 0.89147502 0.17132665 4281943109
0.11156061 0.87218654 0.17077547 4281020723
0.11269584 0.87029552 0.17072143 4281416764
0.11360401 0.8687827 0.1706782 4281679936
0.11451218 0.86726987 0.17063497 4281942595
0.11564741 0.86537886 0.17058092 4282139717
0.11623115 0.86345863 0.16996035 4281942338
0.11769419 0.86173576 0.1696562 4282073667
0.1185871 0.85982764 0.16934998 4282139717
0.11949696 0.85831195 0.16930668 4281943108
0.12040684 0.85679632 0.16926336 4282205256
0.12154416 0.85490179 0.16920923 4282073927
0.1226815 0.8530072 0.16915509 4281942855
0.13587455 0.83103037 0.16852708 4282337612
0.13709524 0.82901895 0.16916497 4282206026
0.13826355 0.82750237 0.16960432 4282337612
0.13899548 0.82587779 0.16976936 4282074440
0.15787736 0.7950325 0.16857073 4286217338
0.15862118 0.79313916 0.16744432 4286421909
0.20115738 0.72228271 0.16541953 4294901755
0.20183977 0.72114599 0.16538705 4294901755
0.2033232 0.71993715 0.16610762 4294901755
0.20388697 0.71773577 0.16528961 4294901755
0.30488205 0.54949903 0.16048211 4281811270
0.30567101 0.54769748 0.16068485 4282338385
0.30675367 0.54641145 0.16132063 4282667089
0.3079153 0.54449254 0.16172856 4282535758
0.30844671 0.54234278 0.1609132 4282535758
0.30980888 0.54106587 0.16092452 4282469709
0.31101921 0.53971124 0.1609177 4282338381
0.31253076 0.53802007 0.16090921 4282535505
0.31343892 0.53650725 0.16086598 4282207055
0.3139807 0.53434259 0.16004901 4282207056
0.097283199 0.89287901 0.17156562 4281680449
0.097965591 0.89174229 0.17153314 4281812035
0.099642463 0.89021575 0.17224227 4281943364
0.099903144 0.88853902 0.17213579 4282008388
0.1008193 0.88676435 0.17207335 4282073924
0.10224153 0.88507557 0.17251831 4282139717
0.1032005 0.88307279 0.17267255 4282205510
0.10410868 0.88155997 0.17262933 4282139463
0.10501686 0.88004714 0.17258608 4281810498
0.10615207 0.87815613 0.17253205 4281547325
0.10728729 0.87626505 0.17247802 4281744188
0.10839323 0.87465543 0.17202796 4281809211
0.1092208 0.87301773 0.17169225 4280888622
0.11076754 0.87168366 0.1717127 4280889136
0.11115863 0.8697654 0.17090513 4281350971
0.11229597 0.86787081 0.17085099 4281745472
0.11320583 0.86635518 0.17080767 4282139715
0.13617992 0.82808512 0.16971408 4282206026
0.13734697 0.82648265 0.17055036 4282206025
0.13826564 0.82506686 0.17080352 4282008645
0.13884622 0.82369447 0.17097576 4282139717
0.15542033 0.79608542 0.17018682 4281613373
0.15663019 0.79528606 0.16952957 4285099119
0.30495992 0.54693276 0.16167994 4282273620
0.30606037 0.54573309 0.16202205 4282470227
0.30738655 0.54415733 0.16235338 4282404431
0.307917 0.54200691 0.16153918 4282404686
0.30882689 0.54049128 0.16149586 4282469965
0.30973676 0.5389756 0.16145256 4282338379
0.098725922 0.88803923 0.17269848 4282008388
0.099863246 0.8861447 0.17264435 4282073924
0.10111726 0.88408232 0.17327842 4282073925
0.10202628 0.88256806 0.17323515 4282139717
0.1029353 0.88105386 0.17319188 4282205510
0.10422378 0.87954426 0.17352332 4281810499
0.105233 0.87765086 0.17334434 4281744449
0.10611687 0.875754 0.17304043 4281744447
0.10714013 0.87404412 0.17285296 4282006848
0.1082795 0.87212491 0.17224371 4280889137
0.13616215 0.82569599 0.171379 4282074694
0.13719764 0.82429826 0.17175733 4282008644
0.13811639 0.82288355 0.17200993 4281942595
0.1527736 0.79806238 0.17151211 4281548609
0.15312167 0.79684579 0.17110276 4281025091
0.15489163 0.79575014 0.17081164 4282140744
0.13584347 0.82316345 0.17243357 4282139462
0.13652587 0.82202673 0.17240109 4281942596
0.13758995 0.82020074 0.1731846 4281877318
0.13875608 0.81867665 0.17352858 4281482817
0.13960826 0.8163451 0.17393775 4281088060
0.15005223 0.79894763 0.17344061 4281680195
0.15152645 0.79831588 0.17247096 4281614145
0.13721141 0.81722999 0.17417076 4281285438
0.13812128 0.81571436 0.17412744 4281087804
0.13972338 0.81432939 0.17483175 4281022010
0.14063153 0.81281656 0.17478852 4281679934
0.14812395 0.80033576 0.17443186 4281943367
0.14857805 0.79957938 0.17441025 4281811525
0.13846406 0.81331599 0.17501229 4281219133
0.13919735 0.81168836 0.17517763 4281942082
0.14057687 0.81008154 0.17561939 4282204997
0.14158018 0.80819637 0.17624249 4282270790
0.14248833 0.80668354 0.17619926 4282270790
0.14362356 0.80479252 0.17614523 4282204997
0.14475876 0.80290151 0.17609118 4282205508
0.14559075 0.80147886 0.1753629 4282140230
0.14687678 0.80058932 0.17539071 4282008901
0.13876945 0.81037074 0.17619929 4282073670
0.13945185 0.80923402 0.1761668 4282204999
0.14105146 0.80786115 0.17686731 4282204999
0.14195962 0.80634832 0.17682408 4282205256
0.14309484 0.80445731 0.17677003 4282139718
0.14423005 0.80256629 0.176716 4282205508
0.1444561 0.80089796 0.17592859 4282139717
0.063534588 0.96003556 0.16636421 4281878090
0.29096872 0.58117759 0.15553805 4289506223
0.29210818 0.57927948 0.15548381 4289703859
0.29301974 0.57776099 0.15544042 4289967031
0.062524267 0.95926803 0.16714945 4281812296
0.063612662 0.9574644 0.16756427 4282009674
0.064524211 0.95594597 0.16752088 4281812295
0.16456789 0.789294 0.16275868 4282505921
0.16525155 0.78815514 0.16272613 4282113478
0.16639102 0.78625709 0.16267189 4280339645
0.16753046 0.78435898 0.16261765 4280070065
0.16844201 0.78284055 0.16257426 4281711806
0.16935359 0.78132206 0.16253087 4280338368
0.17049304 0.77942395 0.16247663 4279290814
0.17140459 0.77790552 0.16243324 4279750851
0.18625489 0.75377822 0.1614254 4284243808
0.18716644 0.75225979 0.161382 4284178272
0.18830588 0.75036168 0.16132776 4284244065
0.18921746 0.74884319 0.16128439 4284375908
0.18990113 0.74770439 0.16125184 4284638824
0.28834957 0.58370972 0.15656556 4289701291
0.28903326 0.58257091 0.15653302 4289505452
0.28953439 0.58048862 0.15571071 4289308843
0.29044762 0.57896733 0.15566723 4289177514
0.2915892 0.57706571 0.1556129 4289572271
0.29313526 0.57573777 0.15633775 4289769650
0.29381895 0.57459891 0.15630521 4289901236
0.33164868 0.51158249 0.15450448 4281878088
0.33233234 0.51044363 0.15447193 4282009417
0.33324388 0.50892514 0.15442854 4282074953
0.33438337 0.50702709 0.1543743 4282206282
0.3355228 0.50512898 0.15432006 4282074694
0.33643436 0.50361049 0.15427667 4282008648
0.33734593 0.50209206 0.15423328 4282074190
0.33802956 0.5009532 0.15420073 4282139983
0.34577784 0.4880462 0.15383191 4282338128
0.3466894 0.48652774 0.15378852 4282338127
0.34782884 0.48462966 0.15373427 4282469713
0.3487404 0.48311117 0.15369089 4282535506
0.34965196 0.48159271 0.1536475 4282338384
0.35056353 0.48007423 0.15360411 4282469970
0.35150561 0.47767326 0.15302694 4282535763
0.35284242 0.47627807 0.15349562 4283126616
0.35375398 0.47475961 0.15345223 4282930007
0.061070763 0.95861584 0.16779189 4281812549
0.061984021 0.95709455 0.16774841 4281943880
0.063125595 0.95519292 0.16769406 4281812551
0.064168632 0.95316434 0.16849476 4281681223
0.06543009 0.95183456 0.16840763 4281681223
0.066377774 0.94999874 0.16837156 4281878345
0.066905841 0.9486047 0.16836447 4281878857
0.1622978 0.79062742 0.16379119 4282239412
0.16322148 0.78908002 0.16332747 4280997823
0.1681498 0.78024447 0.16269478 4279291842
0.16929138 0.77834284 0.16264044 4279029697
0.17020464 0.77682155 0.16259697 4280470459
0.17111787 0.77530026 0.1625535 4287230432
0.17251134 0.77361381 0.16330501 4287411113
0.17350011 0.77181238 0.16326337 4288061343
0.17446457 0.76994872 0.16322653 4288518813
0.17552036 0.76860148 0.16316183 4290294196
0.17644098 0.76665634 0.1631324 4291413190
0.17760402 0.76497608 0.16306801 4294177264
0.17856912 0.76311135 0.16303115 4294835449
0.17948121 0.76159191 0.16298768 4294835705
0.18035688 0.75983942 0.16295634 4293783018
0.18170796 0.75813985 0.16287266 4289965230
0.18267366 0.75627398 0.16283572 4287267206
0.18358578 0.7547546 0.1627923 4285096549
0.18446214 0.75300086 0.16276093 4284570718
0.18566124 0.75124151 0.16248544 4284374880
0.18657765 0.74935341 0.1623845 4284243808
0.18769035 0.74791723 0.16259691 4284375138
0.18916145 0.74605453 0.16250628 4286807169
0.18997064 0.74411869 0.16248837 4294571762
0.1908828 0.74259931 0.16244499 4294901753
0.1922581 0.74133712 0.16234341 4294901753
0.19294177 0.74019825 0.16231087 4294901753
0.21072148 0.70955217 0.1615006 4287466638
0.21140556 0.70841259 0.16146804 4287269516
0.21231771 0.70689321 0.16142462 4286941064
0.21345787 0.7049939 0.16137035 4286678149
0.21459801 0.70309466 0.16131608 4286612356
0.21551013 0.70157522 0.16127266 4286546564
0.21642224 0.70005584 0.16122924 4286414979
0.21722507 0.69820416 0.16120908 4286546565
0.21780957 0.69568741 0.16123542 4286875272
0.21872282 0.69416612 0.16119196 4287335056
0.22184633 0.69143903 0.16123593 4294901755
0.28497186 0.58628505 0.15823106 4294440947
0.28497127 0.5844214 0.15773694 4290161839
0.2871182 0.5833047 0.1571286 4289766825
0.28782362 0.58150423 0.15669665 4289439656
0.29124832 0.57579935 0.15653363 4289506478
0.29193324 0.57465839 0.15650102 4289572271
0.29266173 0.5729329 0.15732469 4289506478
0.29342574 0.57116294 0.15739888 4289572013
0.29499897 0.56958187 0.15775377 4289966772
0.29591057 0.56806344 0.15771037 4290427321
0.29682213 0.56654495 0.15766698 4290755003
0.32530835 0.5190928 0.15631101 4282206026
0.32599205 0.51795393 0.15627846 4282271819
0.32690358 0.5164355 0.15623507 4282206026
0.32748216 0.51422411 0.1556918 4282206026
0.32857579 0.5133279 0.15560742 4282272075
0.3298333 0.5115248 0.15469694 4282009160
0.33097488 0.50962323 0.1546426 4282074953
0.33211643 0.50772154 0.15458825 4282074953
0.33302969 0.50620031 0.15454479 4282206539
0.33394295 0.50467896 0.15450132 4282140746
0.3350845 0.5027774 0.15444697 4282074953
0.33622608 0.50087577 0.15439263 4282009164
0.33717713 0.49905816 0.15502785 4282074444
0.33777961 0.49748203 0.15518726 4282139981
0.33873254 0.49563757 0.15515089 4282271566
0.3399094 0.49393424 0.15508589 4282206031
0.34102568 0.49236861 0.1550225 4282206286
0.34188673 0.49064046 0.15499176 4282469715
0.34284028 0.48879495 0.15495536 4282798680
0.34396517 0.48696974 0.15476003 4282403665
0.34484571 0.48560017 0.15443458 4282469456
0.34627187 0.48414156 0.15391444 4282403920
0.34741345 0.48223993 0.15386009 4282469713
0.34855497 0.48033836 0.15380576 4282338384
0.34946826 0.47881705 0.15376228 4282404435
0.35015321 0.47767609 0.15372968 4282799194
0.35289297 0.4731122 0.15359926 4282929749
0.067945734 0.94658488 0.16916367 4281747782
0.068290785 0.94424456 0.16921009 4281879113
0.06888596 0.9425469 0.16920689 4281813065
0.069749855 0.94048995 0.16918777 4281878601
0.071276836 0.93897617 0.16907841 4281812807
0.071804672 0.93706703 0.16908996 4282009931
0.072717912 0.93554574 0.16904649 4281943882
0.074442163 0.93393236 0.16975728 4282141263
0.075353734 0.93241388 0.16971388 4282009678
0.076493181 0.93051583 0.16965964 4282206543
