# .PCD v0.7 - Point Cloud Data file format
VERSION 0.7
FIELDS x y z rgb
SIZE 4 4 4 4
TYPE F F F U
COUNT 1 1 1 1
WIDTH 1096
HEIGHT 1
VIEWPOINT 0 0 0 1 0 0 0
POINTS 1096
DATA ascii
0.43529397 0.56394309 0.15371901 4281349688
0.4398115 0.5364911 0.15228257 4281415994
0.44021305 0.53405088 0.15215488 4281547580
0.44051421 0.53222078 0.15205911 4281415994
0.44071499 0.53100067 0.15199527 4281613373
0.45476949 0.44559452 0.14752629 4281481274
0.45507064 0.44376439 0.14743054 4281349688
0.45537183 0.44193426 0.14733477 4281284408
0.45456716 0.43995047 0.1466973 4281284408
0.45496872 0.43751031 0.14656962 4281350201
0.45526987 0.43568018 0.14647385 4281350201
0.45557103 0.43385005 0.1463781 4281349947
0.45652184 0.43185881 0.14545459 4281481533
0.45682344 0.43002623 0.1453587 4281547325
0.4572255 0.42758283 0.14523083 4281481787
0.4575271 0.42575026 0.14513494 4281481787
0.45782864 0.42391768 0.14503905 4281415994
0.45813021 0.42208511 0.14494316 4281285178
0.45843178 0.42025253 0.14484727 4281416764
0.45883387 0.41780913 0.14471942 4281350971
0.45913547 0.41597655 0.14462352 4281350971
0.45943701 0.41414398 0.14452763 4281482557
0.45973858 0.41231143 0.14443174 4281613373
0.45971292 0.41057405 0.14475046 4281481787
0.46139517 0.40533158 0.14541949 4281285178
0.46159598 0.4041115 0.14535566 4281285178
0.46189713 0.4022814 0.14525989 4281547580
0.4642061 0.38825035 0.14452571 4281153592
0.46450725 0.38642025 0.14442994 4281153593
0.46480843 0.38459012 0.14433418 4281153338
0.46902478 0.35896826 0.14299348 4282272073
0.46932593 0.35713813 0.14289773 4282271818
0.46972752 0.35469794 0.14277004 4282074698
0.47002867 0.35286781 0.14267427 4281943369
0.47032982 0.35103765 0.14257851 4281811781
0.47063097 0.34920755 0.14248274 4281745475
0.47083178 0.34798747 0.14241891 4281548096
0.41821596 0.66153026 0.15611799 4286215789
0.41841725 0.66030693 0.15605398 4287005305
0.41871923 0.65847194 0.15595797 4287202684
0.41842216 0.65649974 0.15667479 4287071611
0.4187237 0.65466714 0.1565789 4287006332
0.41852584 0.65209222 0.15726419 4287335557
0.41942739 0.65039116 0.15635516 4287401096
0.41972896 0.64855862 0.15625927 4287137152
0.42003053 0.64672607 0.15616338 4288452499
0.42033207 0.64489347 0.15606749 4287334018
0.4207342 0.64245003 0.15593962 4288123534
0.42048281 0.64054066 0.15557289 4287399811
0.42078441 0.63870811 0.155477 4287268225
0.42076749 0.63640618 0.15554093 4287136637
0.42160529 0.63486552 0.15536487 4287926408
0.42148751 0.63254678 0.15556459 4287268990
0.42178887 0.63071543 0.15546876 4287400577
0.42224154 0.62890905 0.15516925 4287399299
0.42264342 0.62646687 0.15504146 4287729288
0.42364934 0.62473524 0.15501268 4288387219
0.42395091 0.62290269 0.15491679 4287597704
0.42425248 0.62107015 0.1548209 4286610810
0.42516121 0.61932528 0.15390956 4287268738
0.42440322 0.61671734 0.1543263 4287334785
0.42470482 0.61488473 0.15423042 4286742393
0.42500636 0.61305219 0.15413453 4286939772
0.42498755 0.61076158 0.15419905 4287729290
0.42603037 0.60923421 0.15375036 4287860875
0.42484879 0.60679531 0.15436032 4288056973
0.42575875 0.60503405 0.15344742 4288122253
0.42606032 0.60320145 0.15335153 4288912023
0.42646241 0.60075808 0.15322368 4289767842
0.42676401 0.59892547 0.15312779 4287925637
0.42706555 0.59709293 0.15303189 4288254604
0.42736712 0.59526038 0.152936 4289043866
0.42828003 0.59348124 0.15202217 4288714642
0.42868263 0.59103459 0.15189414 4290557354
0.42898461 0.5891996 0.15179813 4294966766
0.42928657 0.58736455 0.15170211 4294901748
0.43014294 0.58560658 0.15187766 4294901493
0.43044493 0.58377159 0.15178165 4294506222
0.43023279 0.58128762 0.15247205 4291742144
0.43022719 0.57943767 0.1527856 4289373339
0.4302204 0.57758999 0.15309896 4287727230
0.43117487 0.57522666 0.15324211 4286411633
0.43147603 0.5733965 0.15314636 4287333250
0.43177724 0.5715664 0.15305059 4288122765
0.45346132 0.43979686 0.1461556 4281349946
0.45386288 0.43735668 0.14602792 4281415740
0.45416406 0.43552655 0.14593215 4281349947
0.45446521 0.43369639 0.14583638 4281349947
0.45431215 0.43130338 0.14508203 4281547326
0.45516482 0.42967242 0.14490125 4281547324
0.45540267 0.42739365 0.14462455 4281481787
0.45586613 0.4255195 0.14432131 4281481787
0.45584348 0.42377296 0.14464027 4281415994
0.45591906 0.42153832 0.14457111 4281285178
0.45677242 0.41990304 0.14439005 4281416764
0.45684803 0.41766846 0.14432085 4281219385
0.45714942 0.41583711 0.14422502 4281285178
0.45745075 0.41400573 0.14412925 4281350971
0.45863128 0.4121576 0.14388932 4281481787
0.45860636 0.4104203 0.1442084 4281481787
0.41822153 0.64019412 0.15557428 4288256403
0.41852272 0.63836396 0.15547852 4288255633
0.41892427 0.6359238 0.15535083 4287466371
0.41922542 0.63409364 0.15525506 4287597955
0.41952661 0.63226354 0.15515931 4287137917
0.41982779 0.63043338 0.15506354 4287335553
0.42012894 0.62860328 0.15496778 4287203197
0.42043009 0.62677312 0.15487202 4287137152
0.42544958 0.59627092 0.15327595 4287334272
0.42565036 0.59505087 0.15321212 4288451216
0.42656139 0.59327394 0.15229769 4289109144
0.42696345 0.59083056 0.15216984 4294374119
0.42726505 0.58899796 0.15207393 4294967280
0.42756659 0.58716542 0.15197805 4294901751
0.42786819 0.58533281 0.15188216 4294901751
0.42816973 0.58350027 0.15178627 4294835959
0.42857182 0.58105683 0.15165842 4294835960
0.42826048 0.57918972 0.15238217 4294835960
0.45335779 0.42667866 0.14440185 4281547065
0.45355859 0.42545855 0.14433801 4281547065
0.45385975 0.42362845 0.14424224 4281481785
0.4542613 0.42118827 0.14411455 4281285178
0.42434373 0.59611732 0.15273425 4287794569
0.42454454 0.59489721 0.15267041 4287925385
0.424597 0.5930168 0.15189408 4289899687
0.42499882 0.59057498 0.15176632 4294901494
0.42530018 0.58874363 0.15167049 4294901750
0.42560151 0.58691227 0.15157472 4294901752
0.42568383 0.58464158 0.15150397 4294901753
0.4265238 0.5830785 0.15132597 4294901753
0.42660609 0.58080781 0.15125524 4294835960
0.42715466 0.57903606 0.15184046 4294835960
0.45225197 0.42652506 0.14386016 4281678651
0.45245275 0.42530492 0.14379631 4281678651
0.4527539 0.42347479 0.14370055 4281415992
0.45315546 0.42103463 0.14357287 4281350199
0.42263401 0.59275979 0.15149124 4290952889
0.42303556 0.59031963 0.15136357 4294901494
0.42333671 0.58848953 0.1512678 4294901751
0.42363793 0.58665937 0.15117204 4294901753
0.42403948 0.58421922 0.15104435 4294901753
0.42434064 0.58238906 0.15094858 4294901753
0.42464182 0.5805589 0.15085281 4294901753
0.42219692 0.5862512 0.15043913 4294901753
0.42238072 0.58398873 0.15023179 4294901753
0.42268187 0.58215863 0.15013604 4294901753
0.4204208 0.58558846 0.14951502 4294901753
0.42038682 0.58350372 0.14922804 4294901753
0.42047018 0.58185136 0.14905263 4294901753
0.42178217 0.84376568 0.18037151 4281020721
0.42198372 0.84254074 0.18030742 4281086514
0.42268929 0.83825338 0.18008308 4281349429
0.42067194 0.84361142 0.17982765 4281020723
0.42087349 0.84238648 0.17976356 4281348918
0.42157903 0.83809912 0.17953922 4281414968
0.41734272 0.8500402 0.17909247 4281348918
0.42077112 0.83610743 0.17889921 4281414711
0.42097273 0.8348825 0.17883511 4280954930
0.4162325 0.84988594 0.1785486 4281348917
0.41386157 0.85394192 0.17795715 4281415479
0.41017884 0.85906863 0.17688593 4281349686
0.41189384 0.85554796 0.1772375 4281086514
0.41526949 0.83158422 0.17571567 4282596665
0.41547111 0.83035928 0.17565158 4282925374
0.40906858 0.85891438 0.17634207 4281349686
0.41360411 0.83135283 0.17489989 4283122498
0.41380569 0.83012789 0.17483579 4282925119
0.40624335 0.86228073 0.17544664 4281349686
0.40765598 0.86059755 0.17589435 4281415479
0.41249385 0.83119863 0.17435603 4283122498
0.41269547 0.82997364 0.17429192 4282925119
0.4051331 0.86212647 0.17490278 4281283895
0.37484342 1.0358388 0.18318878 4281547327
0.37524655 1.033389 0.18306059 4281415484
0.37554896 1.0315515 0.18296444 4281349947
0.37585133 1.029714 0.1828683 4281284154
0.3762545 1.0272641 0.18274011 4281350460
0.37655684 1.0254267 0.18264395 4281219131
0.37685922 1.0235893 0.18254781 4281416767
0.38976032 0.9451921 0.17844559 4281679166
0.39016348 0.94274223 0.1783174 4281547067
0.39046586 0.94090474 0.17822126 4281480759
0.39066744 0.9396798 0.17815715 4281480759
0.40250942 0.86426789 0.17394325 4281809469
0.40402284 0.86197227 0.17435892 4281283895
0.40901116 0.82820886 0.17232431 4287728517
0.37085831 1.0428029 0.18221369 4281481020
0.37257332 1.0392823 0.18256527 4281416253
0.37549621 1.0215205 0.18163587 4281614402
0.37546209 1.0194275 0.18134774 4281350972
0.37542796 1.0173345 0.18105963 4281416764
0.37539384 1.0152414 0.18077151 4281350971
0.37559542 1.0140165 0.18070741 4281284924
0.37801439 0.99931699 0.17993826 4281415740
0.37831676 0.99747956 0.1798421 4281349947
0.38093728 0.98155516 0.17900884 4281481020
0.38123965 0.97971773 0.1789127 4281678653
0.38154206 0.9778803 0.17881656 4281875262
0.38416258 0.9619559 0.17798328 4282139202
0.38446492 0.96011841 0.17788714 4282139204
0.3864823 0.95476037 0.17814258 4281679166
0.38688546 0.9523105 0.17801438 4281876545
0.39021152 0.93209869 0.17695677 4281480502
0.38970602 0.92826957 0.17622061 4281283895
0.38990757 0.92704463 0.17615652 4281349688
0.39998657 0.8657968 0.17295167 4281678651
0.4013992 0.86411369 0.17339939 4281612858
0.4073458 0.82797748 0.17150852 4286808441
0.40653789 0.82598579 0.1708685 4287071359
0.36974809 1.0426488 0.18166985 4281481020
0.37367886 1.0187621 0.18041995 4281417277
0.37398124 1.0169246 0.18032381 4281351484
0.37428361 1.0150872 0.18022765 4281285691
0.37448516 1.0138623 0.18016356 4281350717
0.37690416 0.99916279 0.17939439 4281415740
0.37720653 0.9973253 0.17929825 4281415740
0.37982705 0.98140091 0.17846499 4281547067
0.38012943 0.97956347 0.17836884 4281744446
0.3804318 0.97772604 0.17827269 4281875262
0.38305232 0.96180165 0.17743944 4282007616
0.38335469 0.95996422 0.17734329 4281941823
0.38859576 0.92811531 0.17567676 4281349688
0.38879734 0.92689037 0.17561266 4281415481
0.39887634 0.86564261 0.17240781 4281678651
0.40542766 0.82583153 0.17032465 4286676092
0.36621732 1.0503024 0.18099876 4281153851
0.36793229 1.0467818 0.18135032 4281219131
0.36823466 1.0449444 0.18125418 4281415740
0.37317339 1.014933 0.17968379 4281219644
0.37347573 1.0130955 0.17958765 4281350717
0.3737781 1.0112581 0.17949151 4281481787
0.37408048 1.0094206 0.17939536 4281415994
0.37448362 1.0069708 0.17926717 4281284408
0.37478599 1.0051333 0.17917103 4281350201
0.38043025 0.97083455 0.1773763 4281809465
0.38063183 0.96960962 0.1773122 4281941051
0.38093418 0.96777213 0.17721605 4281875259
0.38123655 0.96593469 0.17711991 4281941053
0.38143814 0.96470976 0.17705581 4281876030
0.3878887 0.92551118 0.17500471 4281415479
0.38698 0.92413199 0.17439675 4281547065
0.38728237 0.92229456 0.1743006 4281677881
0.39544636 0.87268382 0.17170466 4281546297
0.39574873 0.87084639 0.17160852 4281415479
0.39716133 0.86916322 0.17205624 4281613371
0.39746371 0.86732578 0.17196009 4281613115
0.40431744 0.82567734 0.16978079 4287070848
0.40350953 0.82368565 0.16914079 4287465604
0.4038119 0.82184821 0.16904463 4287662983
0.45803681 0.49233511 0.15180251 4281350201
0.45833918 0.49049768 0.15170635 4281350201
0.45864156 0.48866025 0.15161021 4281415740
0.4589439 0.48682281 0.15151407 4281415740
0.45924628 0.48498538 0.15141793 4281415740
0.46075812 0.47579822 0.1509372 4281350201
0.36510706 1.0501481 0.18045488 4281153338
0.38586974 0.92397773 0.17385288 4281677881
0.38617209 0.9221403 0.17375673 4281743672
0.3943361 0.87252963 0.1711608 4281612090
0.39463845 0.87069219 0.17106466 4281415479
0.40239927 0.82353139 0.16859691 4287136123
0.40270162 0.82169396 0.16850077 4287071100
0.45299575 0.5160675 0.15250853 4281481274
0.45329812 0.51423007 0.15241238 4281481274
0.4536005 0.51239264 0.15231624 4281481274
0.45390284 0.51055521 0.15222009 4281415481
0.45430604 0.50810528 0.15209191 4281481274
0.45460838 0.50626785 0.15199575 4281613373
0.45491076 0.50443041 0.15189961 4281350201
0.45521313 0.50259298 0.15180346 4281415994
0.45551547 0.50075555 0.15170732 4281415994
0.45581785 0.49891812 0.15161116 4281284408
0.45622104 0.49646822 0.15148297 4281415994
0.4564226 0.49524322 0.15141888 4281481787
0.45702735 0.49156839 0.15122658 4281350201
0.46085736 0.46829423 0.15000874 4281349434
0.46105891 0.46706927 0.14994465 4281415227
0.4612605 0.4658443 0.14988054 4281415227
0.48162001 0.34212381 0.14340673 4281284924
0.4818216 0.34089884 0.14334264 4281350717
0.48212403 0.33906138 0.14324649 4281482303
0.48252714 0.33661148 0.14311831 4281350717
0.48282954 0.33477408 0.14302215 4281482303
0.48313189 0.33293661 0.14292601 4281482303
0.48343423 0.33109921 0.14282987 4281482303
0.48363581 0.32987422 0.14276576 4281613889
0.48424059 0.32619935 0.14257348 4281482303
0.48444217 0.32497442 0.14250937 4281285437
0.48474452 0.32313696 0.14241323 4281219644
0.48514768 0.32068706 0.14228503 4281154108
0.48545006 0.31884959 0.14218889 4281285951
0.48575246 0.31701219 0.14209275 4281351230
0.48605481 0.31517476 0.14199659 4281219644
0.48635715 0.3133373 0.14190045 4281219388
0.48676032 0.31088743 0.14177226 4281284925
0.48706266 0.30904999 0.14167611 4281482305
0.48736507 0.30721256 0.14157997 4281547326
0.38516268 0.92137361 0.17318083 4281612088
0.38425401 0.91999435 0.17257287 4281677883
0.38455635 0.91815698 0.17247672 4281677882
0.38687453 0.90406996 0.17173961 4281742906
0.38717687 0.90223253 0.17164347 4281546297
0.38747928 0.9003951 0.17154731 4281677883
0.38778165 0.89855766 0.17145117 4281612348
0.38818479 0.89610773 0.17132297 4281612606
0.38848716 0.8942703 0.17122683 4281415227
0.38878953 0.89243287 0.17113069 4281415227
0.38974783 0.89006013 0.17127442 4281612862
0.39005017 0.88822269 0.17117828 4281613117
0.38979742 0.88630813 0.17081019 4281481274
0.39121005 0.8846249 0.17125791 4281613373
0.39151242 0.88278747 0.17116177 4281547065
0.39191556 0.8803376 0.17103358 4281481272
0.39221793 0.87850016 0.17093743 4281612090
0.39252034 0.87666273 0.17084128 4281612090
0.39282268 0.8748253 0.17074513 4281677883
0.39302427 0.8736003 0.17068104 4281546297
0.40189376 0.81970227 0.16786076 4287729543
0.40209535 0.81847733 0.16779667 4287532164
0.40290165 0.81357747 0.16754028 4287137152
0.40320402 0.81174004 0.16744414 4287466117
0.40350643 0.80990261 0.16734798 4287070846
0.40370798 0.80867767 0.16728389 4286939260
0.44311523 0.56230736 0.1538565 4281742902
0.44331682 0.56108236 0.15379241 4281611316
0.44361916 0.55924493 0.15369627 4281480502
0.44533262 0.54883277 0.15315144 4281284406
0.44553417 0.54760784 0.15308733 4281284406
0.44583654 0.54577041 0.15299119 4281350199
0.44613895 0.54393297 0.15289505 4281415992
0.4491626 0.52555865 0.1519336 4281415994
0.44946498 0.52372122 0.15183744 4281415994
0.44976738 0.52188379 0.1517413 4281481787
0.45006973 0.52004635 0.15164515 4281284408
0.4503721 0.51820892 0.15154901 4281350201
0.45188552 0.51591325 0.15196468 4281481274
0.45218787 0.51407582 0.15186854 4281481274
0.45249024 0.51223838 0.15177238 4281481274
0.45279261 0.51040095 0.15167624 4281415481
0.45319578 0.50795102 0.15154804 4281481274
0.45349815 0.50611359 0.1514519 4281613373
0.45380053 0.50427616 0.15135576 4281415994
0.45410287 0.50243872 0.1512596 4281481787
0.45440525 0.50060129 0.15116346 4281481787
0.45403466 0.49825272 0.15068337 4281284408
0.45511079 0.49631396 0.15093912 4281415994
0.45531237 0.49508899 0.15087502 4281481787
0.45591709 0.49141413 0.15068273 4281350201
0.45974711 0.46814001 0.14946489 4281349434
0.45994869 0.46691501 0.14940079 4281349434
0.4601503 0.46569005 0.1493367 4281415227
0.46024948 0.45818606 0.14840825 4281481020
0.46045107 0.45696113 0.14834414 4281546813
0.46075347 0.45512369 0.148248 4281546300
0.46115661 0.45267379 0.14811981 4281611836
0.46145898 0.45083636 0.14802366 4281611836
0.46176136 0.44899893 0.14792752 4281546043
0.46216449 0.44654903 0.14779933 4281677883
0.4624669 0.44471157 0.14770319 4281612090
0.46266848 0.4434866 0.14763908 4281546297
0.47536799 0.36631444 0.14360096 4281942084
0.47567034 0.36447698 0.14350481 4282007877
0.4760735 0.36202705 0.14337662 4281876291
0.47637588 0.36018962 0.14328048 4282271049
0.47667822 0.35835221 0.14318433 4282205510
0.47708139 0.35590225 0.14305614 4282205510
0.47738379 0.35406488 0.14296 4281942338
0.47768614 0.35222739 0.14286384 4281942083
0.47798848 0.35038999 0.1427677 4281744705
0.47829089 0.34855258 0.14267156 4281481535
0.47869405 0.34610265 0.14254336 4281350719
0.47899643 0.34426522 0.14244722 4281350719
0.4798539 0.34250489 0.14262299 4281219132
0.4807114 0.34074461 0.14279878 4281482303
0.48067731 0.33865157 0.14251067 4281350717
0.48141691 0.33645722 0.14257444 4281350971
0.48171926 0.33461982 0.1424783 4281482303
0.48202166 0.33278236 0.14238214 4281482303
0.48232403 0.33094496 0.142286 4281482303
0.48252562 0.32971999 0.14222191 4281613889
0.48313037 0.32604513 0.14202961 4281482303
0.48333195 0.32482016 0.14196552 4281285437
0.48363429 0.3229827 0.14186938 4281351230
0.48403749 0.32053283 0.14174119 4281219644
0.48433983 0.31869537 0.14164503 4281417023
0.48464218 0.31685799 0.14154889 4281416510
0.48494458 0.31502053 0.14145274 4281284924
0.48524693 0.31318307 0.1413566 4281284667
0.48565009 0.31073317 0.14122841 4281284668
0.48595247 0.30889574 0.14113227 4281350719
0.48625481 0.30705833 0.14103612 4281547328
0.48574933 0.30322918 0.14029996 4281154367
0.48615247 0.30077928 0.14017177 4280892222
0.48645487 0.29894185 0.14007562 4281089857
0.48675722 0.29710445 0.13997948 4280892478
0.48746273 0.29281706 0.13975513 4281286723
0.48776513 0.29097962 0.13965899 4281023039
0.48806751 0.28914219 0.13956285 4281154369
0.48836985 0.28730476 0.1394667 4281154367
0.48867226 0.28546733 0.13937055 4281285953
0.4889746 0.28362989 0.1392744 4281351489
0.48937777 0.28117999 0.13914621 4281482818
0.48968011 0.27934256 0.13905007 4281285439
0.48998249 0.27750516 0.13895392 4281220160
0.49038565 0.2750552 0.13882573 4281154367
0.490688 0.2732178 0.13872959 4280826172
0.38314372 0.91984016 0.172029 4281809469
0.3834461 0.91800272 0.17193286 4281677882
0.38273901 0.91539854 0.1712608 4281546554
0.38304138 0.91356111 0.17116465 4281415481
0.38334376 0.91172367 0.1710685 4281678653
0.3836461 0.90988624 0.17097236 4281809469
0.38394848 0.90804881 0.17087622 4281809212
0.38435167 0.90559894 0.17074803 4281940285
0.38520914 0.90383857 0.17092381 4281874492
0.38566297 0.90223104 0.17092898 4281612090
0.38636902 0.90024084 0.17100345 4281677883
0.38667136 0.89840341 0.1709073 4281612348
0.38707453 0.89595354 0.17077911 4281546813
0.38737687 0.8941161 0.17068297 4281481020
0.38767928 0.89227861 0.17058681 4281415227
0.38808244 0.88982874 0.17045861 4281612606
0.38838479 0.88799131 0.17036247 4281547067
0.38868716 0.88615388 0.17026633 4281481274
0.44039077 0.56506121 0.15292902 4281546294
0.44134906 0.56268841 0.15307276 4281546294
0.44220653 0.56092811 0.15324853 4281480500
0.44250891 0.55909067 0.15315239 4281546295
0.44422233 0.54867858 0.15260756 4281284406
0.44442394 0.54745358 0.15254347 4281284406
0.44472632 0.54561615 0.15244733 4281415992
0.44502866 0.54377872 0.15235119 4281481785
0.44432157 0.54117459 0.15167913 4281415992
0.44462392 0.53933716 0.15158297 4281350199
0.44502711 0.53688723 0.15145478 4281415994
0.44532949 0.5350498 0.15135863 4281350971
0.44563183 0.53321236 0.15126249 4281482044
0.44593421 0.53137493 0.15116635 4281481787
0.44613579 0.53015 0.15110224 4281350201
0.44805238 0.52540439 0.15138972 4281285178
0.44835475 0.52356696 0.15129358 4281350458
0.4486571 0.52172953 0.15119743 4281415994
0.44895947 0.5198921 0.15110129 4281284408
0.44926184 0.51805466 0.15100513 4281350201
0.46080148 0.44448021 0.14688738 4281546297
0.46110386 0.44264278 0.14679123 4281415224
0.46140623 0.44080535 0.14669509 4281415481
0.46170861 0.43896791 0.14659895 4281481274
0.46211174 0.43651798 0.14647074 4281481274
0.4714852 0.37955755 0.14349023 4281416764
0.47178757 0.37772012 0.14339408 4281482557
0.47208995 0.37588269 0.14329794 4281745727
0.47229153 0.37465775 0.14323385 4281679934
0.47410575 0.3636331 0.14265697 4281943110
0.47440812 0.36179569 0.14256082 4281811524
0.47471049 0.35995823 0.14246468 4282008904
0.47501284 0.35812083 0.14236853 4282140743
0.47571835 0.3538335 0.14214419 4281942855
0.38162878 0.91524434 0.17071694 4281481274
0.38193113 0.91340685 0.1706208 4281415481
0.3822335 0.91156948 0.17052466 4281678653
0.38253587 0.90973198 0.1704285 4281809469
0.38283825 0.90789455 0.17033236 4281809212
0.38324142 0.90544468 0.17020416 4282006078
0.38354379 0.90360725 0.17010802 4281940285
0.38374534 0.90238225 0.17004393 4281809469
0.43575287 0.58634371 0.15350686 4287136123
0.43605527 0.58450627 0.15341072 4287334272
0.43645844 0.58205634 0.15328252 4287664263
0.43676078 0.58021891 0.15318638 4287138433
0.43706316 0.57838148 0.15309022 4287334785
0.43736553 0.57654405 0.15299408 4286674807
0.43766788 0.57470661 0.15289794 4285556582
0.43807107 0.57225668 0.15276974 4286280818
0.43837345 0.57041931 0.1526736 4282662717
0.43867579 0.56858182 0.15257746 4281873463
0.46044639 0.43628663 0.14565496 4281612860
0.46074876 0.43444923 0.14555882 4281481274
0.46105114 0.43261176 0.14546268 4281481531
0.46135348 0.43077433 0.14536652 4281481787
0.46165588 0.4289369 0.14527038 4281415994
0.46336931 0.41852477 0.14472556 4281613373
0.46367168 0.41668734 0.1446294 4281547067
0.46397403 0.41484991 0.14453326 4281415994
0.4642764 0.41301247 0.14443712 4281415994
0.46457878 0.41117507 0.14434098 4281481787
0.46478036 0.40995008 0.14427687 4281481787
0.4662922 0.40076289 0.14379615 4281350201
0.46659458 0.39892545 0.1437 4281350201
0.46689692 0.39708802 0.14360385 4281415994
0.46790484 0.39096326 0.14328337 4281349947
0.46820721 0.38912585 0.14318722 4281284154
0.42153838 0.65892005 0.15623291 4287136121
0.42184079 0.65708262 0.15613677 4287071100
0.42284867 0.65095788 0.15581629 4287269508
0.42315102 0.64912045 0.15572013 4286808959
0.42345339 0.64728302 0.15562399 4288322198
0.42375579 0.64544559 0.15552785 4286808959
0.42415893 0.64299566 0.15539965 4287334791
0.4253684 0.63564593 0.15501507 4287531398
0.42688024 0.62645876 0.15453434 4287335301
0.42708182 0.62523377 0.15447024 4287005820
0.42738423 0.62339634 0.15437409 4287795594
0.42768657 0.6215589 0.15427795 4287795852
0.43292767 0.58971006 0.15261142 4287465856
0.43323001 0.58787262 0.15251528 4290293156
0.43408749 0.58611232 0.15269107 4289898141
0.43438986 0.58427489 0.15259492 4288582540
0.43479306 0.58182496 0.15246671 4287662724
0.43565053 0.58006471 0.1526425 4287664520
0.43595287 0.57822722 0.15254636 4288782747
0.43625528 0.57638979 0.15245022 4289504419
0.43655765 0.57455236 0.15235408 4286083182
0.43696079 0.57210243 0.15222588 4285754730
0.43726316 0.57026505 0.15212972 4283123268
0.43756554 0.56842756 0.15203358 4281873465
0.45933613 0.43613237 0.1451111 4281415994
0.45963848 0.43429497 0.14501494 4281415994
0.45994085 0.43245751 0.1449188 4281415994
0.46024325 0.4306201 0.14482266 4281613373
0.46054563 0.42878264 0.14472651 4281481787
0.45983851 0.42617849 0.14405446 4281547580
0.46014088 0.42434105 0.14395832 4281415994
0.46044326 0.42250362 0.14386216 4281350714
0.46074563 0.42066619 0.14376602 4281285178
0.46145168 0.41867602 0.14384048 4281613373
0.46215773 0.41668585 0.14391494 4281415994
0.46286377 0.41469565 0.1439894 4281481787
0.46316615 0.41285822 0.14389324 4281547580
0.46346849 0.41102082 0.1437971 4281481787
0.46367007 0.40979585 0.14373301 4281481787
0.46518192 0.40060866 0.14325228 4281481787
0.46548432 0.39877123 0.14315613 4281415994
0.4657867 0.39693379 0.14305998 4281481787
0.46679458 0.39080903 0.1427395 4281415994
0.46709692 0.3889716 0.14264335 4281350201
0.41972262 0.66305315 0.1559134 4287727481
0.42889449 0.60731769 0.15299697 4288189329
0.42919686 0.60548025 0.15290083 4288386706
0.42949927 0.60364282 0.15280469 4287859846
0.42980161 0.60180539 0.15270855 4288451468
0.43010399 0.59996796 0.15261239 4288122764
0.43050712 0.59751803 0.15248419 4290030761
0.4308095 0.59568059 0.15238805 4288386706
0.43111187 0.59384316 0.15229191 4287926409
0.43141425 0.59200573 0.15219577 4287926407
0.43171662 0.5901683 0.15209961 4289636255
0.43211979 0.58771837 0.15197143 4294834671
0.41861236 0.66289896 0.15536954 4286807408
0.42778423 0.60716343 0.15245311 4287531912
0.42808664 0.605326 0.15235697 4287728008
0.42838901 0.60348856 0.15226083 4287465090
0.42869136 0.60165113 0.15216468 4287794053
0.42899373 0.5998137 0.15206853 4287004537
0.42939687 0.59736377 0.15194033 4288385936
0.42969924 0.59552634 0.15184419 4287596420
0.43000165 0.59368891 0.15174805 4287859590
0.43030399 0.59185147 0.1516519 4287201914
0.43060637 0.59001404 0.15155576 4291214512
0.43100953 0.58756417 0.15142757 4294967026
0.42237961 0.84821999 0.1790057 4281218102
0.42258173 0.84699184 0.17894143 4281218102
0.42314067 0.84503359 0.17950732 4281020721
0.42440236 0.84284776 0.1792618 4281152307
0.42470551 0.84100544 0.17916539 4281348916
0.42500868 0.83916318 0.179069 4281283636
0.42359513 0.83679104 0.17920712 4281283893
0.42419991 0.83513713 0.17872088 4280889135
0.4195469 0.85159528 0.17810789 4281414711
0.41974902 0.85036713 0.17804362 4281414711
0.42126644 0.84806538 0.17846039 4281217332
0.42146856 0.84683716 0.17839612 4281217332
0.42107052 0.84522265 0.17911181 4281218102
0.42248344 0.8366366 0.17866254 4281283895
0.42308745 0.83498257 0.17817593 4280889137
0.42267969 0.83255821 0.17711176 4281151537
0.4178274 0.85512525 0.1777554 4281547067
0.41743413 0.85349983 0.17847191 4281415481
0.41763598 0.85227323 0.17840773 4281480504
0.41935325 0.84874791 0.17875977 4281414711
0.4217754 0.83402902 0.17798959 4280889137
0.42096645 0.83203471 0.17734873 4281414707
0.41460514 0.85687065 0.17757529 4281086514
0.41576055 0.85530734 0.17736062 4281415479
0.41632241 0.85334539 0.17792733 4281415479
0.41652426 0.85211879 0.17786315 4281414709
0.41929886 0.83180302 0.17653185 4282006072
0.41964325 0.83025193 0.17537944 4283123520
0.41349342 0.85671622 0.17703071 4281086514
0.41369528 0.85548961 0.17696653 4281218100
0.4176313 0.83157134 0.17571498 4282334265
0.41853008 0.83009726 0.17483415 4282926141
0.41074559 0.86356348 0.17551088 4281349688
0.41141331 0.86098063 0.17604692 4281349686
0.41256616 0.85941947 0.17583126 4281283893
0.41217986 0.85778832 0.17655031 4281218100
0.41686031 0.82986528 0.17401619 4282991680
0.40963235 0.86340886 0.17496558 4281349688
0.4093509 0.86115915 0.1756537 4281415479
0.41519052 0.8296333 0.17319824 4284964702
0.39356121 0.94723129 0.17827725 4282073924
0.39386439 0.94538897 0.17818086 4281810751
0.39416757 0.94354665 0.17808446 4281481785
0.39418852 0.94144815 0.1783783 4281546295
0.39420927 0.93935126 0.17867218 4281612086
0.39479461 0.93776512 0.17818558 4281480501
0.39548132 0.93556339 0.17766672 4281414709
0.39578447 0.93372107 0.17757033 4281546295
0.40650931 0.86657739 0.1744606 4281546295
0.40652192 0.86453003 0.17475708 4281480502
0.40793639 0.86284459 0.17520539 4281349686
0.41293132 0.82903647 0.17316809 4285754216
0.41326731 0.82748175 0.17201123 4287333759
0.37523255 1.0408483 0.18291013 4281481533
0.3754344 1.0396217 0.18284595 4281415742
0.37656394 1.0381793 0.18263477 4281415742
0.37779477 1.0361211 0.1823913 4281481279
0.37809795 1.0342789 0.18229491 4281481022
0.37812954 1.0321203 0.18258597 4281284154
0.37816089 1.0299636 0.18287706 4281284154
0.37846366 1.0281237 0.18278079 4281415995
0.37886733 1.0256705 0.18265243 4281350459
0.37981594 1.0238391 0.18174864 4281415997
0.37894717 1.0218899 0.18182763 4281613119
0.37930906 1.0199999 0.18101053 4281481533
0.37961224 1.0181576 0.18091413 4281481787
0.37991542 1.0163153 0.18081774 4281481532
0.39012218 0.95429116 0.17757225 4281942336
0.39032429 0.95306295 0.17750798 4281942336
0.39034781 0.95095813 0.17780222 4281942336
0.39037105 0.94885498 0.17809647 4281876543
0.39151046 0.94735253 0.17788215 4281810751
0.39275119 0.9452343 0.17763555 4281744702
0.39305437 0.94339198 0.17753915 4281547067
0.39307609 0.9412936 0.17783336 4281546295
0.39254168 0.93911958 0.17785531 4281612088
0.39298537 0.93740654 0.1775637 4281480502
0.39377585 0.93539339 0.17721114 4281414709
0.39367417 0.93370473 0.1769437 4281546295
0.39386123 0.93156946 0.17638332 4281414709
0.40484065 0.86634558 0.1736432 4281743675
0.4048543 0.86429834 0.17394021 4281546296
0.4112637 0.82880479 0.17235121 4285820009
0.41159749 0.82724977 0.17119329 4286873208
0.37412083 1.0406939 0.18236554 4281481533
0.37432268 1.0394673 0.18230136 4281415740
0.37452453 1.0382408 0.18223718 4281481533
0.37724945 1.0216819 0.18137072 4281351230
0.37819588 1.0198452 0.18046524 4281350717
0.37849906 1.0180029 0.18036883 4281350971
0.37880221 1.0161606 0.18027243 4281285178
0.38900897 0.95413649 0.17702696 4281876545
0.38921109 0.95290828 0.17696269 4281942338
0.38923535 0.95080358 0.17725727 4281810750
0.38925931 0.94870055 0.1775519 4281810752
0.38946119 0.94747394 0.1774877 4281679166
0.39087409 0.93888789 0.17703843 4281612088
0.39117688 0.93704802 0.17694215 4281414709
0.39147964 0.9352082 0.17684589 4281414709
0.39206317 0.93361932 0.17635809 4281480502
0.39274806 0.93141478 0.17583801 4281414709
0.40285373 0.87000477 0.17262466 4281809467
0.40315691 0.86816245 0.17252827 4281875260
0.40278304 0.86651981 0.17325169 4281875260
0.40934306 0.82665604 0.17116578 4289044890
0.41023088 0.82517546 0.17027892 4287860616
0.37081558 1.050855 0.18101344 4281219131
0.37101769 1.0496268 0.18094917 4281349947
0.37078723 1.0471312 0.18162937 4281481277
0.37201467 1.0450799 0.18138528 4281612606
0.3731415 1.0436405 0.18117313 4281415227
0.37280726 1.041766 0.18188514 4281415740
0.3768442 1.0172344 0.18060151 4281350971
0.37714699 1.0153946 0.18050523 4281284923
0.37732735 1.0132968 0.17994662 4281284410
0.377226 1.0116093 0.17967948 4281415737
0.37811425 1.0098168 0.1794945 4281415737
0.37783182 1.007928 0.17948686 4281218616
0.37847796 1.0058039 0.17933013 4281218361
0.37878093 1.0039629 0.17923377 4281349947
0.37825555 1.0017478 0.17925464 4281284154
0.3803165 1.0000393 0.17889166 4281349947
0.38061967 0.99819708 0.17879526 4281219131
0.38037649 0.99576932 0.17947832 4281219132
0.38067928 0.99392945 0.17938204 4281350719
0.38098204 0.99208963 0.17928576 4281284926
0.38128483 0.99024975 0.1791895 4281284926
0.38158756 0.98840988 0.17909323 4281284668
0.38199127 0.98595673 0.17896485 4281481276
0.38266954 0.98378778 0.17844635 4281481275
0.38324714 0.98223048 0.17795978 4281481274
0.38344926 0.98100227 0.17789553 4281678653
0.38249433 0.97598964 0.17790681 4282006077
0.38279712 0.97414976 0.17781055 4281940283
0.3833749 0.97258669 0.17732339 4281809467
0.38405403 0.9704079 0.17680395 4281677881
0.38435721 0.96856558 0.17670755 4281875260
0.38466039 0.96672332 0.17661114 4281875773
0.38534537 0.96407229 0.17714646 4281942080
0.38648099 0.96257925 0.17693152 4281942336
0.38678414 0.96073699 0.17683512 4282008131
0.38708732 0.95889467 0.17673872 4281876545
0.38673469 0.95713216 0.17745659 4281679166
0.39107439 0.93076074 0.17607667 4281283895
0.39137715 0.92892087 0.17598039 4281283895
0.39066914 0.92631322 0.17530745 4281481274
0.39153224 0.92496449 0.17442608 4281612860
0.39183539 0.92312217 0.17432967 4281547067
0.40022314 0.87215185 0.1716626 4281415479
0.40114504 0.86986363 0.17217131 4281613115
0.40085244 0.86803645 0.17216687 4281810237
0.40167132 0.86636531 0.17270711 4281875260
0.40823132 0.82650155 0.1706212 4286940027
0.40844294 0.82450831 0.16934866 4287268737
0.40840873 0.82240975 0.16905978 4287597190
0.46196884 0.49693659 0.15202905 4281349947
0.46227202 0.4950943 0.15193264 4281415740
0.46257517 0.49325198 0.15183625 4281415740
0.46287832 0.49140969 0.15173985 4281415740
0.4631815 0.4895674 0.15164344 4281415740
0.46348467 0.48772508 0.15154704 4281349947
0.46388891 0.48526868 0.15141851 4281349947
0.46419206 0.48342636 0.15132211 4281415740
0.46449524 0.4815841 0.15122572 4281547580
0.46479842 0.47974178 0.15112931 4281350201
0.4651016 0.47789949 0.15103291 4281415738
0.36757866 1.0566868 0.18024416 4281087545
0.36788183 1.0548445 0.18014777 4281087545
0.36818501 1.0530021 0.18005136 4281350717
0.3697024 1.0507004 0.18046813 4281153338
0.36990452 1.0494722 0.18040387 4281415740
0.36967552 1.0469767 0.1810848 4281481277
0.36997828 1.0451368 0.18098852 4281744192
0.37522629 1.0132458 0.1793198 4281284924
0.37552908 1.0114059 0.17922352 4281415994
0.37583184 1.0095661 0.17912725 4281415994
0.37613463 1.0077262 0.17903097 4281218615
0.37653831 1.0052731 0.17890261 4281218615
0.37684107 1.0034332 0.17880633 4281284408
0.37714386 1.0015934 0.17871007 4281218361
0.38138261 0.9758352 0.17736225 4282006077
0.38168541 0.97399533 0.17726597 4281677111
0.38226244 0.97243214 0.17677845 4281677881
0.38294086 0.97025329 0.17625865 4281809467
0.38324404 0.96841097 0.17616224 4281809467
0.38354722 0.96656865 0.17606585 4281875773
0.38330016 0.96418273 0.17675251 4282007616
0.38955742 0.92615879 0.17476287 4281415481
0.39041907 0.92480981 0.17388077 4281612859
0.39072222 0.92296749 0.17378438 4281547065
0.38991219 0.92097062 0.17314267 4281546295
0.39031643 0.91851413 0.17301413 4281743674
0.39061961 0.91667187 0.17291774 4281744444
0.39223653 0.90684628 0.17240359 4281612088
0.39253968 0.90500396 0.17230719 4281546295
0.39284283 0.90316164 0.1722108 4281809467
0.39314601 0.90131932 0.17211439 4281809467
0.39355025 0.89886296 0.17198586 4282006848
0.39385343 0.8970207 0.17188945 4281876030
0.39415661 0.89517838 0.17179306 4281678651
0.39445975 0.89333606 0.17169666 4281547065
0.39476293 0.89149374 0.17160025 4281547578
0.39506611 0.88965148 0.17150386 4281481785
0.39547035 0.88719505 0.17137532 4281481787
0.3957735 0.88535273 0.17127892 4281481529
0.39607665 0.88351047 0.17118253 4281481272
0.39637983 0.88166815 0.17108612 4281547065
0.39678407 0.87921178 0.1709576 4281481272
0.39708725 0.87736946 0.17086118 4281481272
0.39739043 0.87552714 0.17076479 4281481272
0.39910993 0.87199724 0.17111729 4281481272
0.39884233 0.86973619 0.17181049 4281613371
0.39914513 0.86789632 0.17171422 4281744700
0.40699238 0.82409739 0.16861089 4288649625
0.40673897 0.82217777 0.16824183 4287860364
0.40648553 0.82025814 0.16787277 4287334018
0.40678871 0.81841582 0.16777638 4287202432
0.40709186 0.81657356 0.16767998 4287596930
0.45746946 0.51389945 0.15211083 4281547067
0.45767158 0.51267123 0.15204656 4281481274
0.45797473 0.51082891 0.15195017 4281350201
0.45827791 0.50898659 0.15185377 4281415994
0.45858106 0.50714433 0.15175736 4281415994
0.4589853 0.50468791 0.15162882 4281350201
0.45928848 0.50284559 0.15153243 4281415994
0.46029904 0.49670461 0.1512111 4281415740
0.46053654 0.49511871 0.15148818 4281415740
0.46080926 0.4931767 0.15210661 4281415740
0.46111202 0.49133682 0.15201034 4281349947
0.46151569 0.48888367 0.15188198 4281349947
0.46181849 0.48704383 0.1517857 4281349947
0.46212125 0.48520395 0.15168943 4281415740
0.46242404 0.48336408 0.15159315 4281415740
0.46272677 0.48152423 0.15149689 4281547580
0.46313047 0.47907105 0.15136851 4281415994
0.46343327 0.47723117 0.15127224 4281481020
0.4638364 0.47506621 0.15043892 4281415484
0.46413919 0.47336879 0.14999002 4281349947
0.4858664 0.34133723 0.14308132 4281284925
0.48616955 0.33949491 0.14298493 4281350717
0.48637167 0.33826673 0.14292066 4281416510
0.48849392 0.32537064 0.14224586 4281285439
0.48879707 0.32352832 0.14214945 4281153853
0.48910019 0.321686 0.14205305 4281285438
0.4894034 0.31984371 0.14195666 4281285437
0.48970655 0.31800139 0.14186026 4281285437
0.49011078 0.31554502 0.14173172 4281154108
0.49041399 0.3137027 0.14163531 4281154365
0.49071711 0.31186044 0.14153892 4281284924
0.49102032 0.31001812 0.14144252 4281547583
0.49122244 0.30878994 0.14137825 4281547583
0.36593825 1.0558672 0.18047699 4281153338
0.36614004 1.0546407 0.18041281 4281087545
0.36644283 1.0528007 0.18031654 4281088058
0.36795825 1.0505021 0.18073276 4281219131
0.36826101 1.0486622 0.1806365 4281219131
0.38864753 0.92477775 0.1741541 4281547065
0.38895029 0.92293787 0.17405783 4281612858
0.38824227 0.92033029 0.17338489 4281546295
0.38920325 0.91835952 0.17246883 4281743674
0.38950643 0.9165172 0.17237243 4281547065
0.38980961 0.91467494 0.17227603 4281481272
0.39011276 0.91283262 0.17217962 4281678651
0.39041594 0.91099036 0.17208323 4281809467
0.39082015 0.90853387 0.17195469 4281743674
0.39112332 0.90669161 0.1718583 4281612088
0.3914265 0.90484929 0.1717619 4281480760
0.39116907 0.90254492 0.17245424 4281547067
0.3914718 0.90070504 0.17235798 4281678653
0.39177459 0.89886516 0.1722617 4281744446
0.39207736 0.89702529 0.17216542 4281810239
0.39248106 0.89457214 0.17203707 4281547067
0.39278382 0.89273226 0.17194079 4281481274
0.39308658 0.89089245 0.17184451 4281481787
0.39377218 0.88866055 0.17132129 4281547580
0.39435714 0.88704038 0.17083003 4281481787
0.39409581 0.88475949 0.1715236 4281547323
0.3943986 0.88291967 0.17142732 4281547065
0.39470136 0.88107979 0.17133106 4281547065
0.39500412 0.87923992 0.17123479 4281612088
0.39530692 0.87740004 0.17113851 4281546296
0.39571059 0.87494689 0.17101015 4281612090
0.39712507 0.87326145 0.17145845 4281415479
0.39742786 0.87142164 0.17136219 4281481272
0.40519896 0.82419837 0.16889118 4287531399
0.40540078 0.82297176 0.168827 4286939262
0.40479371 0.81975091 0.16812196 4289110942
0.40509647 0.81791103 0.16802569 4289110683
0.40539923 0.81607115 0.16792941 4287860101
0.40609297 0.81378978 0.16740359 4287465597
0.40668607 0.8121202 0.16690974 4287794819
0.40698925 0.81027788 0.16681334 4287663748
0.40729243 0.80843556 0.16671695 4287203967
0.40759557 0.8065933 0.16662054 4287401347
0.4482204 0.55972499 0.15370288 4281480504
0.44852358 0.55788267 0.15360649 4281415481
0.44882676 0.55604035 0.15351009 4281415481
0.44912994 0.55419803 0.15341368 4281547067
0.44933206 0.55296987 0.15334941 4281415994
0.4547891 0.51980847 0.15161422 4281415481
0.45499122 0.51858026 0.15154995 4281481274
0.4552944 0.51673794 0.15145354 4281481274
0.45537597 0.51430762 0.15173286 4281481274
0.45535624 0.51249307 0.15204436 4281481274
0.45565903 0.5106532 0.15194808 4281415481
0.45596179 0.50881332 0.1518518 4281350201
0.45626459 0.50697345 0.15175554 4281547580
0.45666829 0.5045203 0.15162717 4281350201
0.45697102 0.50268042 0.15153091 4281481787
0.45727381 0.50084054 0.15143463 4281415994
0.45822504 0.49892905 0.15052168 4281284408
0.4582037 0.49712417 0.15083373 4281415994
0.45868725 0.49455473 0.15128455 4281415738
0.45969754 0.49302226 0.15156202 4281349947
0.46000028 0.49118239 0.15146576 4281349947
0.46040398 0.48872921 0.15133739 4281415740
0.46070677 0.48688936 0.15124112 4281415740
0.46100953 0.48504949 0.15114485 4281415740
0.46131229 0.48320961 0.15104857 4281415740
0.46161506 0.48136976 0.15095229 4281547580
0.46201876 0.47891662 0.15082394 4281415994
0.46232155 0.47707674 0.15072766 4281481020
0.46206844 0.47515965 0.15035909 4281415482
0.46181536 0.47324255 0.14999053 4281350201
0.46211812 0.4714027 0.14989425 4281349947
0.46242088 0.4695628 0.14979799 4281415227
0.46337894 0.46760991 0.14888287 4281415227
0.46368212 0.46576759 0.14878647 4281415227
0.46540007 0.4553279 0.14824019 4281349947
0.46570322 0.45348561 0.1481438 4281284154
0.48126599 0.35891417 0.14319524 4281877828
0.48156914 0.35707185 0.14309885 4282074436
0.48187232 0.35522956 0.14300245 4281942336
0.48217547 0.35338727 0.14290604 4282073922
0.48257971 0.35093087 0.14277752 4281744705
0.48288292 0.34908855 0.14268111 4281613121
0.48318604 0.34724626 0.14258471 4281415742
0.48359028 0.34478989 0.14245617 4281481535
0.4832111 0.34322527 0.14318724 4281415742
0.48385531 0.34124494 0.14267717 4281284924
0.48391756 0.33893222 0.14296259 4281416510
0.48490399 0.33680654 0.14203843 4281482303
0.4852072 0.33496428 0.14194204 4281482303
0.48551035 0.33312196 0.14184564 4281482303
0.48581356 0.33127964 0.14174923 4281416510
0.48611671 0.32943735 0.14165284 4281548096
0.48641992 0.32759503 0.14155644 4281548097
0.48613784 0.3254399 0.1422566 4281350976
0.48654154 0.32298672 0.14212823 4281219646
0.4868443 0.32114685 0.14203195 4281285439
0.48714709 0.31930697 0.14193569 4281088572
0.48744985 0.31746712 0.14183941 4281417023
0.48775265 0.31562725 0.14174314 4281219644
0.48815629 0.31317413 0.14161478 4281285180
0.48845911 0.31133422 0.1415185 4281350717
0.48876184 0.30949438 0.14142223 4281547326
0.48906466 0.3076545 0.14132595 4281613119
0.48971269 0.30565062 0.14081466 4281547839
0.49036106 0.3036451 0.14030324 4281548096
0.49056318 0.30241692 0.14023897 4281155135
0.3648265 1.0557127 0.17993242 4281153338
0.36502835 1.0544862 0.17986824 4281153338
0.36533111 1.0526463 0.17977196 4281088058
0.38657469 0.9200986 0.17256801 4281612088
0.38750055 0.9181971 0.17201553 4281677881
0.38721398 0.91634864 0.17201118 4281612344
0.38813981 0.91444296 0.17145808 4281481015
0.38844299 0.91260064 0.17136168 4281743931
0.38860708 0.91064048 0.17146274 4281809467
0.38911676 0.9083758 0.17150162 4281743674
0.38882947 0.90653169 0.17149749 4281546297
0.38947803 0.90438527 0.17133899 4281546297
0.38950145 0.90231323 0.17163737 4281612090
0.38980424 0.90047336 0.17154109 4281547067
0.39010701 0.89863348 0.17144482 4281678399
0.3904098 0.8967936 0.17134856 4281678399
0.39081347 0.89434046 0.17122018 4281415483
0.39111623 0.89250058 0.17112392 4281415483
0.39197487 0.89073795 0.17129993 4281481787
0.39265972 0.888506 0.17077635 4281613373
0.39206046 0.88689774 0.17047013 4281481787
0.39298409 0.88460505 0.17097902 4281547323
0.39328688 0.88276517 0.17088275 4281547065
0.39358965 0.88092536 0.17078647 4281612088
0.39389241 0.87908548 0.17069019 4281612090
0.39419517 0.8772456 0.17059393 4281612090
0.39459887 0.87479246 0.17046556 4281612090
0.40368196 0.81959641 0.16757737 4287729543
0.40398473 0.81775653 0.16748109 4287334272
0.40428752 0.81591672 0.16738483 4287334272
0.40498048 0.81363523 0.16685866 4287597700
0.40557286 0.81196553 0.16636443 4289176987
0.40587604 0.81012321 0.16626804 4288848022
0.40562263 0.80820358 0.16589899 4287202942
0.40592581 0.80636132 0.16580258 4287334786
0.44554004 0.56563395 0.15320627 4281676854
0.44584322 0.56379169 0.15310988 4281742648
0.4461464 0.56194937 0.15301347 4281677112
0.44591761 0.55948466 0.15369849 4281480503
0.44622037 0.55764478 0.15360221 4281612090
0.44652313 0.55580491 0.15350595 4281481017
0.44692683 0.55335176 0.15337758 4281481529
0.44722959 0.55151188 0.1532813 4281415992
0.44753236 0.54967201 0.15318504 4281350199
0.44847068 0.5478251 0.1522744 4281284406
0.44877386 0.54598278 0.152178 4281415736
0.44907704 0.54414046 0.15208159 4281415735
0.44927916 0.54291224 0.15201733 4281481272
0.45150241 0.52940208 0.1513104 4281481017
0.4517045 0.52817386 0.15124613 4281415481
0.45200768 0.52633154 0.15114973 4281481274
0.45231086 0.52448928 0.15105332 4281612860
0.45229343 0.52266753 0.15136503 4281547067
0.45237666 0.52023411 0.15164466 4281349688
0.45267946 0.51839429 0.1515484 4281415481
0.45288131 0.51716769 0.15148421 4281481274
0.45611084 0.49754244 0.15045729 4281350201
0.4615607 0.46442485 0.14872438 4281415227
0.46176252 0.46319827 0.1486602 4281481020
0.46206531 0.46135837 0.14856394 4281481276
0.46246901 0.45890525 0.14843556 4281415484
0.46277177 0.45706537 0.14833929 4281481276
0.46307454 0.4552255 0.14824302 4281415227
0.4633773 0.45338562 0.14814675 4281415227
0.46368009 0.45154575 0.14805047 4281546300
0.46408379 0.4490926 0.14792211 4281414970
0.46438655 0.44725272 0.14782584 4281612347
0.46468931 0.44541287 0.14772956 4281546810
0.46499208 0.443573 0.14763328 4281480761
0.46595353 0.44158572 0.14671531 4281349688
0.46625668 0.4397434 0.1466189 4281415737
0.46655986 0.43790111 0.14652251 4281415736
0.46686304 0.43605882 0.14642611 4281415736
0.47777715 0.36973599 0.14295569 4282008901
0.47797927 0.3685078 0.14289144 4282206026
0.47828248 0.36666548 0.14279503 4281877317
0.47858563 0.36482319 0.14269863 4281811267
0.47888884 0.36298087 0.14260222 4281745474
0.47929299 0.36052448 0.1424737 4281811780
0.47902042 0.35832584 0.14317264 4282074181
0.47932318 0.35648593 0.14307636 4282139717
0.47962597 0.35464612 0.1429801 4282073924
0.47992873 0.35280618 0.14288382 4282139717
0.48023152 0.35096636 0.14278755 4281744706
0.48063517 0.34851322 0.14265919 4281547328
0.48093799 0.34667331 0.14256291 4281350462
0.48124072 0.34483346 0.14246663 4281350462
0.48154354 0.34299359 0.14237036 4281350462
0.48396569 0.32827464 0.14160018 4281548096
0.48416755 0.32704806 0.141536 4281482303
0.48780072 0.30496967 0.14038073 4281416511
0.48810354 0.30312982 0.14028445 4281220159
0.48909551 0.30095676 0.13935675 4281023551
0.48929763 0.29972854 0.13929248 4280892478
0.48960084 0.29788622 0.13919608 4280958271
0.49000508 0.29542986 0.13906755 4281089600
0.49071243 0.29113117 0.13884261 4280891965
0.49091455 0.28990296 0.13877834 4281088575
0.4912177 0.28806069 0.13868195 4281285953
0.49162194 0.28560424 0.13855341 4281154367
0.49283463 0.27823505 0.13816781 4281285695
0.49323887 0.27577862 0.13803928 4281154366
0.49354208 0.27393633 0.13794287 4281088573
0.49384519 0.27209404 0.13784647 4281023037
0.38551265 0.91618723 0.17155859 4281612088
0.38581541 0.91434729 0.17146231 4281546295
0.38611817 0.91250747 0.17136605 4281743674
0.38652188 0.91005433 0.17123768 4281809467
0.38682467 0.90821445 0.1711414 4282006076
0.3871274 0.90637457 0.17104514 4281742905
0.4435671 0.56724429 0.15248471 4281808438
0.44324076 0.56538588 0.15320253 4281677109
0.44354355 0.563546 0.15310626 4281677109
0.44697496 0.54269415 0.15201516 4281481785
0.44781145 0.54145205 0.1511351 4281415992
0.44811463 0.53960979 0.15103871 4281415992
0.44841781 0.53776747 0.15094231 4281415992
0.44872099 0.53592521 0.1508459 4281415737
0.44880694 0.53348219 0.15112562 4281547067
0.44879156 0.53165495 0.15143752 4281678653
0.44909433 0.52981508 0.15134124 4281415481
0.44939712 0.5279752 0.15124498 4281350201
0.44959894 0.52674866 0.15118079 4281415994
0.46352637 0.44211477 0.14675224 4281283895
0.46372822 0.44088817 0.14668804 4281415481
0.46403095 0.43904832 0.14659178 4281481274
0.46433374 0.43720844 0.14649551 4281547065
0.46496546 0.43529025 0.14598763 4281481272
0.46504021 0.43291542 0.14627087 4281481529
0.46600169 0.43091404 0.14535108 4281415994
0.46630487 0.42907172 0.14525469 4281415994
0.46660805 0.42722943 0.14515828 4281613373
0.4669112 0.42538714 0.14506188 4281481787
0.46721438 0.42354482 0.14496548 4281613373
0.46751755 0.42170253 0.14486907 4281547580
0.46792179 0.41924614 0.14474055 4281613373
0.46822497 0.41740385 0.14464414 4281613373
0.46852812 0.41556153 0.14454775 4281415994
0.46883127 0.41371924 0.14445135 4281350201
0.46913445 0.41187695 0.14435495 4281285178
0.46953869 0.40942049 0.14422642 4281416764
0.47469258 0.37810141 0.1425876 4281613373
0.47499573 0.37625909 0.14249121 4281744959
0.47472885 0.37403968 0.14319013 4281811009
0.47503158 0.3721998 0.14309385 4281811522
0.47533438 0.37035993 0.14299759 4282008901
0.47573808 0.36790675 0.14286922 4282140233
0.48774797 0.29492539 0.13905039 4280958271
0.48794982 0.29369876 0.1389862 4280958271
0.38440093 0.91603273 0.17101401 4281612088
0.3847037 0.91419286 0.17091773 4281546295
0.38500649 0.91235304 0.17082146 4281743676
0.38541013 0.90989989 0.1706931 4281809469
0.38571292 0.90805995 0.17059682 4282006076
0.38601568 0.90622014 0.17050055 4281874491
0.43649 0.59641182 0.15293652 4286872697
0.43679318 0.5945695 0.15284011 4287464834
0.4370963 0.59272718 0.15274371 4286741111
0.43708894 0.59086043 0.1530543 4288716184
0.43718225 0.58838195 0.15333281 4288321167
0.43748501 0.58654207 0.15323655 4287926155
0.4377878 0.58470219 0.15314028 4287729546
0.43809056 0.58286232 0.153044 4288914333
0.43839332 0.58102244 0.15294772 4289375395
0.43942064 0.57860291 0.15200464 4287728776
0.43972382 0.57676059 0.15190825 4287135358
0.44002697 0.57491827 0.15181184 4286148975
0.44033012 0.57307601 0.15171544 4288255120
0.4406333 0.57123369 0.15161905 4285623654
0.44041178 0.5687567 0.1523059 4282004534
0.44158423 0.56700325 0.15207455 4281940538
0.44212905 0.56523138 0.15265794 4281677109
0.44243184 0.56339157 0.15256166 4281677109
0.44586322 0.54253972 0.15147057 4281613371
0.44669828 0.54129744 0.15058981 4281415992
0.44700146 0.53945512 0.15049341 4281350199
