# .PCD v0.7 - Point Cloud Data file format
VERSION 0.7
FIELDS x y z rgb
SIZE 4 4 4 4
TYPE F F F U
COUNT 1 1 1 1
WIDTH 1093
HEIGHT 1
VIEWPOINT 0 0 0 1 0 0 0
POINTS 1093
DATA ascii
0.16194196 0.82286882 0.17360006 4280363052
0.16355079 0.82187176 0.17420572 4280429102
0.16506326 0.82101703 0.17472333 4280494895
0.16682784 0.82001984 0.1753272 4280626991
0.16859239 0.8190226 0.17593108 4280495662
0.17010489 0.81816781 0.17644869 4280561455
0.17186944 0.81717062 0.17705257 4280758062
0.17363401 0.81617337 0.17765646 4280626990
0.17514646 0.8153187 0.17817405 4280693040
0.17665896 0.81446391 0.17869167 4280693040
0.17842351 0.81346673 0.17929552 4280693040
0.18010287 0.81282514 0.17967758 4280627248
0.14091618 0.8327632 0.16883084 4281087545
0.1424517 0.83209985 0.1692282 4281219131
0.14409934 0.83127093 0.16972798 4281153339
0.14583023 0.8303861 0.17004725 4281021752
0.14743914 0.82936263 0.17037821 4280889911
0.14902237 0.82792979 0.17058283 4280758324
0.15078692 0.82693261 0.17118673 4280626481
0.15212902 0.82678914 0.1712606 4280692017
0.16087011 0.82123423 0.17463745 4280363052
0.16238259 0.8203795 0.17515506 4280494638
0.16389506 0.81952477 0.17567267 4280692017
0.16565964 0.81852752 0.17627652 4280824114
0.16742419 0.81753033 0.17688043 4280561455
0.16893665 0.81667554 0.17739804 4280627248
0.17070119 0.81567836 0.17800188 4280626734
0.17246576 0.81468117 0.17860578 4280627504
0.17397824 0.81382638 0.1791234 4280693298
0.17549074 0.81297159 0.17964102 4280627762
0.17725529 0.81197441 0.18024485 4280693300
0.13773999 0.83241153 0.1690893 4281350201
0.13953163 0.83182836 0.16943339 4281284408
0.14134099 0.83098978 0.16993722 4281153337
0.14310856 0.82979262 0.17016058 4281021496
0.14482279 0.82890683 0.17056549 4280890166
0.14625645 0.82764792 0.17079268 4280890166
0.14785239 0.82689971 0.17124249 4280692787
0.1496152 0.82636476 0.1715567 4280561201
0.15986875 0.81995511 0.17545117 4280494638
0.16138123 0.81910038 0.17596878 4280757810
0.1628937 0.81824559 0.17648639 4280757810
0.16465828 0.8172484 0.17709024 4280955700
0.16642283 0.81625116 0.17769414 4280561712
0.1679353 0.81539643 0.17821175 4280561968
0.16969986 0.81439918 0.1788156 4280627248
0.1714644 0.813402 0.1794195 4280693043
0.1729769 0.81254727 0.17993711 4280758580
0.17439301 0.81183481 0.18036668 4280627507
0.17633565 0.81126416 0.18070112 4280693300
0.13372467 0.83284074 0.16886841 4281415737
0.13518636 0.83226562 0.1692114 4281350201
0.13702019 0.83118141 0.16965437 4281284409
0.1386991 0.83021355 0.16962931 4281284409
0.14021352 0.82921797 0.16988103 4281152823
0.14197809 0.82822073 0.17048487 4281021239
0.14458059 0.82736498 0.17099011 4280955189
0.14558889 0.82679516 0.17133518 4281021240
0.15937157 0.81839108 0.17643744 4280560943
0.1603799 0.81782126 0.17678249 4280692786
0.16189237 0.81696647 0.1773001 4280889909
0.16365694 0.81596929 0.17790395 4280890165
0.16542149 0.8149721 0.17850785 4280561968
0.16693394 0.81411731 0.17902546 4280693553
0.16869852 0.81312013 0.17962931 4280955185
0.1703667 0.81226522 0.18014516 4280889907
0.17205724 0.81183702 0.18039334 4280758580
0.13289249 0.83177769 0.16954465 4281219385
0.13399474 0.83082628 0.16945334 4281219130
0.13576825 0.82957757 0.16970885 4281088058
0.13755058 0.82880956 0.17016892 4281088058
0.13937907 0.82815206 0.17055914 4280956218
0.14038739 0.82758218 0.17090422 4280824632
0.15820335 0.81689882 0.17738676 4280823858
0.15921168 0.81632894 0.1777318 4280955445
0.16072413 0.81547415 0.1782494 4280889909
0.16248867 0.81447697 0.17885327 4280693042
0.16425325 0.81347978 0.17945714 4280693041
0.16593263 0.8128382 0.17983916 4280758832
0.16727473 0.81269479 0.17991303 4281020721
0.13172744 0.83028948 0.17049138 4281153850
0.13272443 0.8294574 0.1704108 4281087802
0.13453613 0.82835203 0.17049178 4281153852
0.1361942 0.82779938 0.17081833 4281219644
0.1573689 0.81583285 0.17806485 4281086516
0.15837723 0.81526303 0.17840993 4281086518
0.15988968 0.8144083 0.17892754 4280889396
0.16173874 0.81324035 0.17963742 4280889650
0.1632093 0.81237853 0.18015997 4280824113
0.13029471 0.82882988 0.17142341 4281153851
0.13164186 0.82798183 0.17105357 4281088058
0.13300933 0.82744676 0.1710775 4281088058
0.12788899 0.82816541 0.17186867 4281285434
0.12910789 0.82733369 0.17178527 4281219643
0.13068686 0.82657653 0.17175806 4281219387
0.1162334 0.83236045 0.16937904 4281349691
0.11784022 0.83200437 0.16958296 4281350203
0.11951642 0.83099574 0.17019501 4281678911
0.12119327 0.82980275 0.1709227 4281613117
0.12270164 0.82895035 0.1714389 4281547580
0.12444007 0.8279435 0.17195074 4281350201
0.12642395 0.82685554 0.1720328 4281350202
0.12801404 0.82593316 0.17230061 4281416251
0.11382838 0.83151162 0.16993988 4281350971
0.11532468 0.83118057 0.16973604 4281219130
0.11690065 0.83009279 0.16961205 4281350975
0.11866521 0.82909554 0.1702159 4281613635
0.12042978 0.82809836 0.17081982 4281613632
0.12194224 0.82724363 0.17133743 4281415994
0.12345473 0.8263889 0.17185502 4281350201
0.12538618 0.82560486 0.17232329 4281284408
0.12664656 0.82489258 0.17275465 4281350201
0.11266401 0.83037937 0.16993718 4281219897
0.11421996 0.82945526 0.17004375 4281285177
0.11569835 0.82874274 0.17047262 4281482302
0.11783076 0.82802969 0.17089403 4281548097
0.1356502 0.81642181 0.17795599 4280758582
0.1369106 0.81570953 0.17838733 4281152570
0.13867515 0.81471229 0.1789912 4280824119
0.13993555 0.81400001 0.17942254 4280626996
0.1096502 0.82988507 0.17022261 4281087288
0.1112776 0.82916278 0.17051525 4281153081
0.11298355 0.82824749 0.17081562 4281284667
0.11439382 0.82781953 0.17106695 4281350717
0.13321808 0.81656629 0.17789455 4280823859
0.13473056 0.8157115 0.17841217 4281021495
0.13626637 0.81501931 0.17882763 4281087290
0.13817517 0.81388783 0.1795139 4280824375
0.13977213 0.81286234 0.18013753 4280692788
0.10563824 0.8303135 0.17078894 4280693304
0.10687348 0.82967412 0.17070287 4280890681
0.10848552 0.82922637 0.17059319 4281021753
0.10986335 0.82853484 0.17067291 4281219131
0.13221674 0.81528717 0.17870826 4281087543
0.13372922 0.81443238 0.17922586 4281350459
0.13553198 0.81380701 0.18024002 4281152824
0.13715729 0.81284899 0.18085167 4280955702
0.1387708 0.81158322 0.18095122 4280693043
0.10455468 0.82939255 0.17137915 4280693047
0.1058328 0.82843202 0.17108071 4280956218
0.10718264 0.82789725 0.17110462 4281153597
0.13171956 0.81372315 0.17969453 4281219131
0.13272788 0.81315327 0.18003958 4281153594
0.13424034 0.81229854 0.18055718 4280956215
0.13600489 0.81130129 0.18116105 4280759349
0.13776946 0.81030411 0.18176495 4280759091
0.30473137 0.71564078 0.23909639 4290731098
0.30587214 0.71515536 0.23997709 4290070854
0.30675942 0.71481317 0.24077106 4290200644
0.1017725 0.82866168 0.17167386 4281087032
0.10317335 0.82780379 0.17158005 4280955960
0.10488006 0.82704604 0.17166573 4281087802
0.13239759 0.81180245 0.18089023 4281153338
0.13340589 0.81123263 0.1812353 4280955959
0.13491836 0.81037784 0.18175292 4280890679
0.2999523 0.71557409 0.23919547 4291983482
0.3019504 0.71552539 0.2394971 4291655543
0.30357975 0.71538347 0.24045172 4291326832
0.098354526 0.82823521 0.17217883 4280889396
0.10018871 0.82770193 0.17209762 4281020982
0.1019064 0.82626653 0.17218991 4281153081
0.10350059 0.8259806 0.17235006 4281219385
0.29904348 0.71496749 0.23997997 4291917689
0.30020764 0.71506059 0.24039942 4291786616
0.096031673 0.82776928 0.1724987 4280824371
0.097547844 0.82710242 0.17268394 4280824371
0.099105783 0.82609904 0.17244652 4280955702
0.10090505 0.82498741 0.17300361 4281153082
0.29763588 0.7140317 0.24097677 4291785332
0.093222342 0.82770097 0.17257522 4281022007
0.094800949 0.82639039 0.17256624 4280825140
0.096459493 0.82543111 0.17277879 4280759091
0.098472945 0.82513189 0.17294227 4280956213
0.29560271 0.71280468 0.24098337 4290853693
0.29610685 0.71251976 0.24115589 4291577673
0.090420343 0.82599264 0.17249924 4281153338
0.092037499 0.82633829 0.17320737 4281087287
0.093554243 0.82504159 0.17305776 4280955700
0.29334444 0.71131343 0.24194512 4290259495
0.089919671 0.82535315 0.17290609 4281153340
0.090675913 0.82492572 0.1731649 4281087544
0.29158685 0.71046168 0.24250002 4290194217
0.29265895 0.71079969 0.24286541 4290193702
0.29017308 0.70955461 0.2432541 4290463045
0.2913577 0.70948046 0.24351119 4290260786
0.28868568 0.70914209 0.24454208 4290795865
0.2905595 0.70894182 0.24464518 4290396479
0.28648102 0.70811963 0.24402912 4290530635
0.28137168 0.70670211 0.24497882 4289671726
0.28226382 0.70645046 0.24591267 4289803311
0.28020343 0.70520979 0.24592815 4289807942
0.28109771 0.70496088 0.24686027 4290004292
0.27903521 0.70371747 0.24687748 4290272866
0.28010544 0.70363557 0.24780118 4290271579
0.27803385 0.70243835 0.24769118 4290801763
0.27870491 0.70236665 0.24772811 4290536801
0.27661353 0.70108855 0.24855424 4291336304
0.2778756 0.70200342 0.24914594 4291726704
0.27395377 0.69490415 0.2524623 4291734160
0.27405804 0.69434762 0.25399011 4291734417
0.27364659 0.69288754 0.25396597 4292128151
0.12438294 0.69148642 0.25639674 4283718494
0.12586625 0.69110274 0.25688171 4287407280
0.12760656 0.69043088 0.25772789 4285767601
0.12930354 0.6894387 0.2584796 4285044394
0.13101166 0.68848914 0.25898275 4284845731
0.13252613 0.68728113 0.25945944 4284779166
0.13421404 0.68593049 0.25976118 4284713889
0.13572653 0.68507576 0.26027882 4284780195
0.13749108 0.68407851 0.26088265 4284912038
0.13925564 0.68308133 0.26148656 4284977831
0.14076813 0.6822266 0.26200417 4285043624
0.14228059 0.68137181 0.26252177 4285043624
0.14328891 0.68080199 0.26286685 4285043624
0.10800823 0.69797277 0.25252748 4284244059
0.10926862 0.6972605 0.2529588 4284046680
0.11960389 0.69141972 0.2564958 4283454290
0.12136842 0.69104528 0.25687796 4283323476
0.12319838 0.69104177 0.25757483 4283455062
0.12514614 0.69079709 0.25799984 4283389020
0.14224085 0.68113631 0.26385009 4285043624
0.14369853 0.6801464 0.26415801 4285240747
0.14530905 0.67873788 0.26413637 4285438382
0.14679511 0.67777032 0.26531512 4285307053
0.14827774 0.67680466 0.26649272 4285241004
0.14991292 0.67543584 0.26654419 4285306283
0.15119815 0.67443663 0.26699775 4285503404
0.15262632 0.67275763 0.26779693 4285699757
0.15413879 0.67190284 0.26831454 4286028464
0.10765923 0.69758397 0.25336549 4284309082
0.10872687 0.69676006 0.25392273 4284046423
0.11032064 0.69557685 0.25435552 4283783509
0.11154432 0.69412941 0.25489402 4283454291
0.11330888 0.69313222 0.2554979 4283454292
0.11507344 0.69213498 0.25610176 4283454292
0.11701242 0.69187909 0.25663236 4283388754
0.11857238 0.69123673 0.25712866 4283322961
0.11987732 0.69101477 0.25792658 4283323476
0.15542726 0.67035824 0.26985735 4286751155
0.15641449 0.6687718 0.27024975 4287342262
0.088864125 0.70510179 0.24828866 4281349686
0.090492681 0.70440793 0.24909742 4281547065
0.10798386 0.69620281 0.25481737 4283980631
0.10966972 0.69508106 0.25520524 4283651922
0.11129508 0.69368047 0.25565049 4283388753
0.11284813 0.69280457 0.25621459 4283323474
0.11473965 0.69170862 0.25637299 4283323474
0.11653121 0.69137239 0.25774249 4283323474
0.11753678 0.69080412 0.25808662 4283323474
0.15499431 0.66963565 0.27090555 4286619314
0.15605064 0.66795111 0.27112257 4287407798
0.082821198 0.70667183 0.24737701 4281152820
0.084847115 0.70585787 0.2482563 4281152820
0.086064115 0.70540994 0.24911256 4281218613
0.08828982 0.70484531 0.2490464 4281283893
0.090159193 0.703982 0.24936841 4281547065
0.155532 0.66695774 0.27218413 4286948021
0.15603751 0.66562581 0.27261949 4287210935
0.078209035 0.70681828 0.24734046 4281349686
0.080286078 0.70633638 0.2476176 4281284149
0.082016341 0.70587677 0.24837668 4281218357
0.083660044 0.70542699 0.248934 4281218613
0.15559702 0.66429853 0.27370697 4286948276
0.072666772 0.70902789 0.24602193 4281020720
0.074431352 0.7080307 0.24662584 4281152307
0.075943813 0.70717597 0.24714343 4281218100
0.077841081 0.7067976 0.24853808 4281284150
0.078846656 0.70622933 0.24888222 4281349943
0.15527005 0.66303986 0.27503628 4286685106
0.15594015 0.66200715 0.27508539 4287013811
0.15661278 0.66066468 0.27532864 4286815915
0.15577979 0.6609118 0.27636397 4287013043
0.15628257 0.66062766 0.27653602 4287144629
0.24740745 0.81771088 0.17462857 4281349684
0.24910542 0.81635225 0.17368945 4280954927
0.25019091 0.81557131 0.1735758 4281085750
0.24484408 0.8174637 0.17481424 4281350201
0.24670947 0.81668234 0.17469151 4281152819
0.2482129 0.815745 0.17416506 4280955182
0.24110228 0.81757408 0.17478988 4281021236
0.24232343 0.81703818 0.17511114 4280955443
0.24383682 0.81625611 0.17489475 4281087287
0.24566254 0.81512403 0.17472184 4280955957
0.24715178 0.81449866 0.1742845 4280890420
0.23963028 0.81645942 0.17471939 4280889650
0.24118571 0.81561035 0.17475519 4280955699
0.24304901 0.81505167 0.17477389 4281021236
0.23534536 0.81697333 0.17523541 4280889135
0.23677193 0.81596422 0.17498529 4280823600
0.23848659 0.81532049 0.17475842 4280823857
0.23996753 0.81421852 0.17454618 4280889907
0.23067792 0.81729847 0.17508753 4280823857
0.23239006 0.8165307 0.17519417 4280889136
0.23398663 0.81564617 0.17500165 4280889135
0.23572393 0.81480753 0.17462128 4280889392
0.22790447 0.81701583 0.17529795 4280560685
0.22944474 0.81629652 0.17522454 4280692272
0.23108016 0.81527925 0.1752665 4280758064
0.23265624 0.81447637 0.1748656 4280626477
0.22496372 0.81651938 0.17564432 4280560172
0.22683862 0.81588089 0.17547733 4280494892
0.22845681 0.81460547 0.17503175 4280692270
0.2297304 0.81385809 0.17528819 4280560683
0.22244304 0.81609386 0.17594123 4280560172
0.22391818 0.81545031 0.17589776 4280494379
0.22555393 0.81426448 0.17528023 4280429099
0.21956079 0.81600487 0.17603156 4280428585
0.22118987 0.8148635 0.1761373 4280363050
0.22297059 0.81395817 0.17566416 4280429099
0.21672882 0.81531477 0.17649803 4280231466
0.21856366 0.81475282 0.17671023 4280362795
0.21999249 0.81314456 0.17624554 4280560428
0.21417096 0.81484175 0.17682515 4280362794
0.21588986 0.81420004 0.17691168 4280363051
0.21741776 0.81283343 0.17678611 4280494638
0.21858926 0.81198955 0.17667152 4280757809
0.2098362 0.81489331 0.17684479 4280362793
0.21125075 0.81412637 0.17697132 4280362793
0.21292785 0.81339025 0.1768225 4280428842
0.21462682 0.81222075 0.17664677 4280495149
0.21639548 0.81182432 0.17691942 4280692271
0.20916682 0.81403822 0.17738874 4280297512
0.21024549 0.81296396 0.17712185 4280494634
0.21180685 0.81160975 0.17651874 4280757293
0.20597675 0.81275761 0.1782296 4280429867
0.20754579 0.81228203 0.17765054 4280429098
0.20901766 0.81160277 0.17730765 4280626477
0.20295055 0.81261778 0.1783535 4280363306
0.20453869 0.81214511 0.17808603 4280495148
0.20608297 0.81090301 0.17762044 4280626478
0.19866051 0.81319219 0.17804489 4280428586
0.20035566 0.8127628 0.1782937 4280428842
0.20183241 0.81157327 0.17828396 4280429356
0.20347922 0.8103804 0.17803288 4280889138
0.20460817 0.80955511 0.17789276 4282004795
0.17549841 0.8241235 0.17147101 4280692530
0.17676225 0.82340932 0.17190354 4280495408
0.17903717 0.82212365 0.17268206 4280559918
0.18080653 0.82112372 0.17328759 4280428845
0.18213266 0.82060552 0.17359649 4280494637
0.18358694 0.81955242 0.17423911 4280428845
0.18485078 0.81883818 0.17467164 4280428845
0.18767218 0.81755209 0.17544393 4280099880
0.18864229 0.81669551 0.17596918 4280034600
0.19055167 0.81571919 0.17655821 4280231466
0.19234836 0.8149094 0.17704424 4280494637
0.19386494 0.81405234 0.17756325 4280363051
0.19538154 0.81319523 0.17808229 4280363563
0.1972637 0.81190193 0.17803724 4280429612
0.19912367 0.81104815 0.17803437 4280495149
0.20094092 0.81028724 0.17777291 4280757807
0.2021991 0.8095215 0.17794269 4281217332
0.17146115 0.8245551 0.1712489 4280823603
0.17272499 0.82384086 0.17168142 4280823603
0.1746617 0.82305467 0.17215095 4280626994
0.17617829 0.82219762 0.17266998 4280429615
0.17769489 0.8213405 0.173189 4280494895
0.17946427 0.82034057 0.17379452 4280429101
0.18123361 0.81934065 0.17440003 4280429101
0.18277362 0.81864655 0.17481664 4280429101
0.18451957 0.81748366 0.17552458 4280297516
0.18679449 0.81619805 0.1763031 4279903271
0.18780555 0.81562668 0.17664912 4280034857
0.18957491 0.81462669 0.17725465 4280231980
0.19134429 0.81362683 0.17786017 4280363566
0.1930615 0.81248683 0.17766896 4280363566
0.19473045 0.81122124 0.17793253 4280429871
0.1961583 0.81000888 0.177808 4280692786
0.17095912 0.82391381 0.17165686 4280693041
0.17230837 0.82284296 0.17231187 4280692787
0.17365763 0.8217721 0.17296688 4280561459
0.17517422 0.82091498 0.1734859 4280364335
0.17685817 0.82027173 0.17386892 4280364077
0.17862754 0.8192718 0.17447445 4280429869
0.18014413 0.81841469 0.17499347 4280298283
0.18579042 0.81491542 0.17711905 4280166443
0.18680149 0.81434405 0.17746505 4280232236
0.18857087 0.81334412 0.17807056 4280363822
0.19013427 0.81203616 0.17828153 4280429615
0.19185627 0.8109042 0.17815898 4280429615
0.19345732 0.8098402 0.17799529 4280561201
0.17197718 0.82148844 0.17316481 4280692789
0.17298824 0.82091701 0.17351083 4280495921
0.17450483 0.82005996 0.17402986 4280364335
0.18478635 0.81363285 0.17793496 4280561455
0.18579742 0.81306148 0.17828096 4280429356
0.18756713 0.81194806 0.17886682 4280561199
0.18898076 0.81032282 0.17866106 4280626478
0.19075371 0.80933309 0.17873442 4280823602
0.19188985 0.80852729 0.17868938 4281676856
0.15581411 0.82692266 0.16995248 4280495921
0.15749805 0.82627934 0.17033552 4280693301
0.15913518 0.82531011 0.1709234 4280364080
0.18153934 0.81259 0.17862749 4280692785
0.18314356 0.81227952 0.17880286 4280560942
0.18468979 0.81135404 0.1789429 4280626478
0.18641943 0.81044459 0.17927822 4280626478
0.18789122 0.80880904 0.17906658 4280954931
0.18998908 0.80820644 0.17891327 4281743677
0.19121684 0.80766761 0.17923628 4284831068
0.15396631 0.82642519 0.17028642 4280626224
0.15514472 0.82606757 0.17049643 4280692530
0.15666132 0.82521051 0.17101546 4280561202
0.15843068 0.82421058 0.17162098 4280297774
0.16003272 0.82299685 0.17236249 4280428845
0.18032476 0.81165218 0.17908232 4280627249
0.18189345 0.81084049 0.17919526 4280561455
0.18356858 0.80952656 0.17909016 4280561455
0.18550919 0.80884588 0.17915629 4280626992
0.15240979 0.82570708 0.17075516 4280692017
0.15414067 0.82478499 0.17131236 4280560943
0.15565726 0.82392788 0.17183138 4280166955
0.15742663 0.82292795 0.17243691 4280100908
0.159196 0.82192802 0.17304243 4280231723
0.17910315 0.81041104 0.17960089 4280561713
0.18078521 0.80898529 0.17916489 4280627249
0.1822598 0.80866963 0.17930567 4280627249
0.14640081 0.82607561 0.17059617 4280692789
0.14784318 0.82578909 0.17075849 4280692787
0.14943083 0.82520419 0.17110604 4280560945
0.15116537 0.82425916 0.17145629 4280494895
0.15299533 0.82300502 0.17149754 4280100904
0.15468392 0.82226181 0.17206116 4280035111
0.15629463 0.82138878 0.1734152 4280100392
0.15802459 0.82043165 0.17399435 4280231722
0.15878637 0.81907612 0.17483483 4280494638
0.1729413 0.8110767 0.17967901 4280758580
0.17469414 0.81051606 0.17986189 4280692787
0.17641999 0.80975175 0.1798777 4280692786
0.17808156 0.80870873 0.1793313 4280627248
0.14135249 0.82707858 0.17002805 4280889911
0.14328919 0.82629246 0.17049757 4281086776
0.1452259 0.82550627 0.1709671 4280955191
0.14674251 0.82464921 0.17148612 4280757810
0.14830779 0.82367635 0.1719591 4280428845
0.14997575 0.822662 0.17172727 4280231466
0.15186955 0.82148772 0.17222601 4279969318
0.15364371 0.82048506 0.17283317 4280100391
0.15533656 0.81979239 0.17442724 4280297513
0.15685315 0.81893533 0.17494625 4280429099
0.158117 0.81822109 0.17537877 4280495149
0.16814572 0.8119368 0.17919739 4281020722
0.17006536 0.81122196 0.17962241 4280955187
0.17177321 0.81032664 0.1798 4280955187
0.17365658 0.80915254 0.17959788 4280823857
0.17523766 0.80832756 0.1790141 4280693041
0.13755019 0.82762402 0.16973174 4281022265
0.13899915 0.82686687 0.17018896 4280956474
0.14068311 0.82622355 0.17057198 4280824888
0.14236985 0.8250165 0.17097113 4280824631
0.14403512 0.82377756 0.17139044 4280692790
0.14575815 0.82288337 0.17178757 4280429360
0.14740537 0.8219794 0.1722437 4280231723
0.14892076 0.82098991 0.17257334 4279968807
0.15069497 0.8199873 0.17318051 4279969320
0.15235607 0.81915158 0.1736844 4280297770
0.15411822 0.81857479 0.17520498 4280363819
0.1558491 0.8176527 0.17576218 4280691757
0.15711291 0.81693846 0.1761947 4280823344
0.16461399 0.81208271 0.17914827 4280758834
0.16602808 0.81165355 0.17940031 4280824369
0.16754384 0.81082606 0.17968622 4280955699
0.16913879 0.80972898 0.17972626 4280824115
0.17075886 0.808568 0.17964341 4280824114
0.13449907 0.82740581 0.16990508 4281088317
0.13633165 0.82651037 0.17008121 4281087803
0.1379886 0.82530564 0.17023541 4281087545
0.13973017 0.82439691 0.17084314 4281021753
0.14117841 0.82347554 0.17132278 4280955448
0.14293058 0.82221097 0.17187981 4280560689
0.14470473 0.8212083 0.17248698 4280231724
0.14622547 0.82034892 0.17300741 4280165674
0.14774618 0.81948948 0.17352785 4279968808
0.14952035 0.81848681 0.17413501 4280166443
0.15104108 0.81762743 0.17465545 4280429357
0.15307565 0.81737006 0.17597258 4280560943
0.15484503 0.81637013 0.1765781 4280954929
0.15625659 0.81549531 0.17710949 4281217845
0.15796363 0.81429935 0.17783864 4280955187
0.159733 0.81329942 0.17844416 4280889651
0.16111502 0.81245673 0.17895578 4280889650
0.16325036 0.81138873 0.17959958 4280824114
0.16491009 0.81050336 0.17989859 4280758577
0.16634127 0.80924571 0.17980419 4280758832
0.1678077 0.80800402 0.17947459 4280758832
0.16923824 0.80768782 0.17948695 4280824627
0.13210653 0.82644534 0.17053573 4281219131
0.13345228 0.82630152 0.17060976 4281022266
0.13498092 0.82518518 0.17078537 4281022009
0.13685469 0.8237896 0.17096318 4281153081
0.13862889 0.82278693 0.17157036 4281087032
0.14014958 0.82192755 0.17209078 4280757553
0.14192379 0.82092488 0.17269796 4280362797
0.14369793 0.81992221 0.17330512 4280231468
0.14521867 0.81906283 0.17382555 4280100395
0.14673936 0.81820339 0.17434599 4280166443
0.14851356 0.81720078 0.17495315 4280429357
0.1502663 0.81628752 0.17550455 4280560942
0.15201256 0.81581247 0.17696157 4280823857
0.1536736 0.81487375 0.17753002 4280954928
0.15519021 0.81401664 0.17804904 4281020722
0.15695956 0.81301671 0.17865457 4281020725
0.15872891 0.81201684 0.17926009 4281020724
0.1602743 0.81093472 0.17941403 4281020723
0.16209695 0.80992377 0.1798235 4280889392
0.16356647 0.80852413 0.17998976 4280823857
0.16510071 0.80760801 0.17984882 4280824370
0.16670386 0.80726004 0.17978548 4280824625
0.1308326 0.82537693 0.17122065 4281153849
0.13228087 0.82480514 0.17156167 4281153594
0.13391665 0.82371384 0.17153762 4281153337
0.13584788 0.82250351 0.17178133 4281153081
0.13762206 0.82150084 0.17238851 4280758067
0.13914277 0.82064146 0.17290893 4280428588
0.14091697 0.81963879 0.17351611 4280297261
0.14269112 0.81863612 0.17412327 4280231467
0.14421187 0.81777674 0.17464371 4280231981
0.14573257 0.81691736 0.17516412 4280429873
0.14750676 0.81591469 0.1757713 4280561457
0.14908813 0.81493264 0.17636786 4280627505
0.15083218 0.81437725 0.17787528 4280692784
0.15250218 0.81337738 0.17848194 4280889393
0.15406904 0.81240147 0.17895681 4281020722
0.15584084 0.81146824 0.17931664 4281020724
0.15740785 0.81009364 0.17930111 4281020469
0.15904957 0.80908626 0.1796768 4281020469
0.16083865 0.80792737 0.18002768 4280889395
0.16213989 0.80704916 0.17997232 4280758067
0.12874913 0.82495099 0.17151257 4281481787
0.12973247 0.82411754 0.1718086 4281284664
0.13119975 0.82312113 0.1721762 4281088055
0.13283569 0.82217133 0.17219423 4280956726
0.1346733 0.82100308 0.17273584 4280759090
0.13644747 0.82000041 0.173343 4280495149
0.13796818 0.81914097 0.17386344 4280297513
0.13974237 0.81813836 0.1744706 4280297771
0.14151651 0.81713569 0.17507777 4280429615
0.14303724 0.81627631 0.1755982 4280495152
0.14455797 0.81541687 0.17611864 4280626739
0.14633214 0.81441426 0.1767258 4280627251
0.14810631 0.81341159 0.17733297 4280692786
0.14962703 0.81255221 0.17785341 4280758578
0.15140122 0.81154954 0.17846057 4280889393
0.1531606 0.81053072 0.17897969 4281086515
0.15471873 0.80946052 0.17922434 4280889394
0.15647948 0.80875796 0.1794937 4280955188
0.15808071 0.80748302 0.17974901 4280955191
0.1597738 0.80683625 0.18013412 4280889396
0.11974545 0.82695591 0.17036384 4281482304
0.1215148 0.82595599 0.17096937 4281350971
0.12324148 0.82513434 0.17146365 4281219128
0.12471535 0.82445556 0.17187142 4281219128
0.12694205 0.82360369 0.17215739 4281482044
0.12869321 0.82257432 0.17221606 4281416508
0.1302038 0.82136464 0.17256275 4281087543
0.13172452 0.82050526 0.17308317 4280626990
0.13342631 0.81966507 0.17382546 4280560940
0.13508682 0.81880403 0.17489594 4280494892
0.13674098 0.8178311 0.17555748 4280560172
0.1385802 0.81687176 0.1759865 4280692015
0.14014675 0.81594449 0.17662761 4280626997
0.14176235 0.81493908 0.17709535 4280626740
0.14338337 0.81391644 0.17707314 4280757811
0.14515756 0.81291384 0.1776803 4280692274
0.14693171 0.81191117 0.17828746 4280692531
0.14845245 0.81105179 0.1788079 4280889652
0.15018019 0.81000054 0.17915101 4280823857
0.15186019 0.80889416 0.17920145 4280889650
0.15365399 0.80822796 0.17933516 4280823857
0.11587552 0.82760119 0.17000575 4281548350
0.11713935 0.82688701 0.17043826 4281548351
0.11907604 0.82610083 0.1709078 4281482303
0.12084543 0.8251009 0.17151332 4281416509
0.12237319 0.82401597 0.17153129 4281219130
0.12404454 0.82309073 0.17194811 4281219387
0.12588874 0.82206523 0.17244773 4281219386
0.12767628 0.82093799 0.17286044 4281088314
0.12919702 0.82007861 0.17338088 4280627250
0.13071771 0.81921917 0.1739013 4280560429
0.13247271 0.81852996 0.17549248 4280429098
0.13398929 0.81767285 0.17601149 4280494893
0.13578597 0.81686306 0.17649752 4280757552
0.13769536 0.8158868 0.17708655 4281086006
0.13921197 0.81502968 0.17760557 4280758069
0.14066623 0.81397659 0.1782482 4280495410
0.14233057 0.8129589 0.1788661 4280626739
0.14415076 0.81162775 0.17849843 4280758324
0.14592493 0.81062508 0.17910561 4280758067
0.14746259 0.80933803 0.17947237 4280889653
0.14909032 0.80840373 0.17937809 4280692529
0.15114708 0.80799133 0.17951354 4280627248
0.11310209 0.82731855 0.17021616 4281284667
0.11478604 0.82667524 0.17059918 4281482303
0.116192 0.82549459 0.17102726 4281482302
0.11784308 0.82453609 0.17127386 4281482300
0.11965843 0.82330495 0.17147303 4281285434
0.12145172 0.82219625 0.17205565 4281219641
0.1230152 0.82133019 0.17237547 4281153850
0.12476071 0.8204211 0.17298335 4280890935
0.12650169 0.81943756 0.17381495 4280627248
0.1280224 0.81857818 0.17433538 4280429355
0.12956467 0.817819 0.1749 4280494635
0.13146861 0.81724733 0.17630841 4280429099
0.14132652 0.81167632 0.17968202 4280692788
0.14297615 0.81012732 0.17945296 4280955444
0.14479987 0.80884928 0.17952403 4280823859
0.1463794 0.80782622 0.17980528 4280824116
0.10839193 0.82782203 0.16995701 4281219389
0.11007589 0.82717872 0.17034006 4281416254
0.11168208 0.82609427 0.17033669 4281547069
0.11355516 0.82489938 0.17078285 4281547583
0.11518284 0.82382476 0.17131884 4281415996
0.11670966 0.82280713 0.17182034 4281613116
0.11848383 0.82180446 0.17242752 4281219129
0.12029005 0.82052171 0.17222641 4281284921
0.12202442 0.8194893 0.17265594 4280824630
0.12354927 0.81862754 0.17317778 4280430129
0.12524246 0.81787962 0.17441308 4280364333
0.12684782 0.8170777 0.17528988 4280363819
0.12851049 0.81629282 0.17587991 4280494635
0.1302972 0.81575096 0.17726031 4280758321
0.13105901 0.81439543 0.17810079 4281088058
0.14011538 0.81014347 0.180436 4280758835
0.14174999 0.80857742 0.180144 4280824371
0.14313453 0.80768323 0.17980264 4280823603
0.30543128 0.7152198 0.23581113 4290137680
0.10620946 0.82689708 0.17056292 4281219646
0.10742544 0.82642448 0.17072657 4281219646
0.10906782 0.82544273 0.17068912 4281285695
0.11063381 0.82438576 0.17090373 4281417023
0.11240797 0.82338309 0.17151089 4281416767
0.11418215 0.82238048 0.17211807 4281416509
0.11570286 0.82152104 0.17263849 4281481788
0.11721089 0.82020783 0.17265673 4281284408
0.11906765 0.81899017 0.17300425 4281020980
0.12084665 0.81798482 0.17361304 4280495152
0.12237149 0.81712306 0.1741349 4280363567
0.12415048 0.8161177 0.17474373 4280363566
0.12580052 0.81534445 0.1757987 4280626481
0.12736173 0.81493223 0.17662846 4280955189
0.12904438 0.81419367 0.17785802 4281284412
0.13045014 0.81341809 0.17872067 4281218874
0.13157152 0.81225574 0.17943574 4281153338
0.13586855 0.80982739 0.1809063 4280824886
0.13687961 0.80925602 0.1812523 4280759093
0.13895419 0.80836189 0.18102916 4280824628
0.14059827 0.80713534 0.18056993 4280889651
0.14202265 0.80663753 0.18047139 4280889396
0.30145797 0.7152952 0.23581152 4291917688
0.30268747 0.71562696 0.23660047 4291589494
0.30407029 0.71553665 0.23739921 4290667364
0.10489284 0.82582742 0.17110159 4281219130
0.10657033 0.82503033 0.17108491 4281285180
0.10810627 0.82395905 0.17120144 4281154108
0.10962702 0.82309967 0.17172188 4281154108
0.1114012 0.82209706 0.17232904 4281219645
0.11317535 0.82109439 0.17293622 4281482303
0.11470775 0.82010132 0.17330422 4281481788
0.1160685 0.81874293 0.17340976 4280955956
0.11788987 0.81748563 0.17396133 4280626479
0.11966886 0.81648028 0.17457011 4280428845
0.12119369 0.81561852 0.17509195 4280363053
0.12297268 0.81461322 0.17570078 4280626481
0.12475167 0.81360781 0.17630957 4281021496
0.12631261 0.81309551 0.17693387 4281218875
0.12800007 0.81254458 0.17790273 4281218874
0.12977028 0.81187755 0.17910425 4281218875
0.13126329 0.81101942 0.17982094 4281153082
0.13299733 0.80967796 0.18035994 4280956217
0.13478929 0.80888808 0.1810022 4280693559
0.1363989 0.80778092 0.18118401 4280759352
0.1379821 0.80703914 0.1810943 4280955703
0.13932003 0.80599475 0.18090664 4280888883
0.29994383 0.71536273 0.23720361 4291917944
0.3014341 0.71533567 0.23814689 4291852409
0.10380009 0.82455021 0.17162015 4281219128
0.10541097 0.82331806 0.17163551 4281219385
0.10693169 0.82245862 0.17215593 4281153850
0.10845241 0.82159925 0.17267637 4281088058
0.11022659 0.82059658 0.17328353 4281153851
0.11205662 0.81942666 0.17382632 4281219387
0.11363266 0.81850576 0.17396306 4281087799
0.11505946 0.81745398 0.17422971 4280561455
0.11688036 0.81619608 0.17478168 4280232747
0.11865933 0.81519073 0.17539047 4280494892
0.12018418 0.81432897 0.17591232 4280560685
0.12196317 0.81332362 0.17652115 4281087288
0.12374214 0.81231827 0.17712994 4281021752
0.12526698 0.8114565 0.17765178 4281021752
0.12700512 0.81075925 0.17828254 4281021752
0.12866868 0.80987287 0.17902519 4281153338
0.13038325 0.80903941 0.17969559 4281087802
0.13207939 0.80819291 0.18029009 4280956472
0.13383783 0.80737871 0.18062951 4280759093
0.13554168 0.80674386 0.18107256 4280824886
0.29725194 0.71414638 0.23705404 4292045420
0.29889327 0.71453959 0.23796813 4292246397
0.099156484 0.82440782 0.17220762 4281087799
0.10016754 0.82383645 0.17255363 4281153592
0.10244716 0.8232584 0.17249525 4281284664
0.10423637 0.82181764 0.17259002 4281219384
0.10580021 0.82075512 0.17280807 4281219385
0.10744644 0.81976289 0.17277719 4281153592
0.10926318 0.81864071 0.17334072 4280956471
0.11104216 0.81763536 0.17394952 4281022008
0.112567 0.81677359 0.17447135 4280888882
0.11409184 0.81591189 0.1749932 4280625453
0.11587083 0.81490654 0.17560205 4280362796
0.1176498 0.81390113 0.17621082 4280494638
0.11917463 0.81303942 0.17673267 4281218618
0.12019121 0.81246489 0.17708056 4281350971
0.2964884 0.71333808 0.23814681 4291251791
0.29748926 0.71355665 0.23930921 4292177009
0.096760459 0.82437438 0.17225729 4281021751
0.097983837 0.82370698 0.17242494 4281087544
0.09957321 0.82264388 0.17271806 4281219386
0.10119645 0.82143754 0.17265639 4281219130
0.1030469 0.82016516 0.17262839 4281219131
0.10494983 0.81921828 0.17303041 4281219130
0.10664292 0.81857145 0.17341553 4281153592
0.10842191 0.8175661 0.17402434 4280824373
0.11003263 0.81634575 0.17476988 4280626737
0.11155747 0.81548405 0.17529172 4280625967
0.11306583 0.8145076 0.17588566 4280494124
0.11475086 0.81358397 0.17644441 4280494125
0.11664029 0.81261158 0.17703119 4280954933
0.11814365 0.81183946 0.1774971 4281284924
0.11934993 0.81139028 0.17776419 4281285178
0.2949183 0.71197587 0.23898196 4290588973
0.093728967 0.8239013 0.17242153 4281021494
0.095222548 0.82297683 0.17256156 4281087800
0.09690775 0.82193673 0.1725245 4281218873
0.098597661 0.82081079 0.17269853 4281284923
0.099988572 0.81974858 0.17275748 4281153337
0.10165303 0.81922126 0.17306802 4281219131
0.1101879 0.81360072 0.17648849 4280363309
0.11173628 0.81290287 0.17690738 4280363052
0.11351526 0.81189752 0.17751622 4280757810
0.11487185 0.81082082 0.17817475 4281086774
0.29209346 0.71035689 0.23901889 4290194473
0.29378662 0.71126181 0.24020177 4290390566
0.089152224 0.82420313 0.17245579 4281087802
0.090834312 0.8236047 0.17261402 4281152565
0.092406824 0.82281405 0.17265199 4281284408
0.094050139 0.82119495 0.17259651 4281481787
0.095951952 0.82006019 0.17272863 4281284153
0.097611696 0.81939709 0.17300625 4281350202
0.098864526 0.81893706 0.17327955 4281153592
0.10776294 0.81297821 0.17690775 4280232235
0.1092019 0.81247503 0.17720589 4280363307
0.11072674 0.81161332 0.17772773 4280625967
0.11250573 0.81060791 0.17833658 4281086520
0.1142847 0.80960256 0.17894536 4281349433
0.11555542 0.80888444 0.17938022 4281415226
0.29108968 0.70978343 0.23998049 4290196016
0.2924003 0.71047133 0.24130394 4290128166
0.088197723 0.82285476 0.17242722 4281022007
0.089791335 0.82191229 0.17260543 4281218615
0.091420151 0.82079732 0.17243896 4281284664
0.093079261 0.8197884 0.17281532 4281350458
0.095313609 0.81908375 0.17323019 4281284408
0.10506033 0.81233549 0.17734301 4280363309
0.10666754 0.81204718 0.17750442 4280232235
0.10819237 0.81118548 0.17802626 4280560943
0.10971721 0.81032372 0.1785481 4280824116
0.1114962 0.80931836 0.17915694 4281152825
0.11327518 0.80831301 0.17976572 4281153081
0.11454589 0.8075949 0.18020059 4281087544
0.28871781 0.70885444 0.24000105 4291058010
0.28981715 0.70929086 0.24136664 4290727244
0.087242551 0.8211776 0.17283164 4281152825
0.088732213 0.82022822 0.17278847 4281218617
0.090340912 0.81966186 0.17292742 4281153079
0.091762662 0.81923038 0.17318082 4281219131
0.10399927 0.81126106 0.17802916 4280298029
0.10548975 0.8105427 0.17846152 4280363823
0.1070146 0.809681 0.17898336 4280759350
0.10853944 0.80881923 0.1795052 4280890423
0.11031844 0.80781388 0.18011406 4280956217
0.11209742 0.80680853 0.18072283 4280890680
0.11331657 0.80630553 0.18102346 4280890422
0.28625447 0.70875019 0.24127612 4290793807
0.28733066 0.70858628 0.24160205 4290728787
0.28859547 0.70871598 0.24244976 4291124573
0.085834533 0.81970996 0.17311995 4281153340
0.087030441 0.81880462 0.1735044 4281022009
0.10278714 0.80989993 0.17889675 4280561457
0.10431199 0.80903822 0.17941859 4280693044
0.10583682 0.80817646 0.17994043 4280956474
0.10736166 0.80731475 0.18046227 4280956473
0.10914063 0.8063094 0.1810711 4280759095
0.11066548 0.80544764 0.18159293 4280956474
0.28575107 0.70810717 0.24168518 4290595653
0.28625795 0.70782071 0.24185866 4290398274
0.084805146 0.81861544 0.17364961 4281153596
0.086357415 0.81794488 0.17405131 4281022265
0.1018832 0.8086282 0.17970467 4280626994
0.10330244 0.80774862 0.18023895 4280824373
0.10482728 0.80688691 0.18076079 4281021752
0.10635213 0.80602515 0.18128262 4281021752
0.10813112 0.8050198 0.18189147 4280955959
0.10119048 0.80739212 0.18048772 4280890168
0.10212465 0.80624419 0.18119605 4280890424
0.10364951 0.80538243 0.1817179 4281022264
0.10517436 0.80452067 0.18223974 4281022008
0.10700275 0.80385941 0.1826323 4281087545
0.10120103 0.80459601 0.1822401 4280956472
0.10247172 0.80387789 0.18267496 4281153338
0.10433307 0.80344605 0.18292335 4281153338
0.27975106 0.70394838 0.24397026 4290007122
0.27879816 0.70250082 0.24449559 4290272866
0.27995446 0.70373243 0.24567682 4290205786
0.2772752 0.70143986 0.24572963 4290869602
0.27607059 0.70019108 0.24558254 4291072619
0.27348644 0.69349396 0.2504012 4291536783
0.27280545 0.69180584 0.25087726 4291931036
0.27331373 0.69151855 0.25105122 4292128154
0.1260536 0.69258636 0.25214654 4285108643
0.12766005 0.69189554 0.25295371 4284649120
0.12970059 0.69123453 0.25339276 4284253592
0.13088226 0.68985754 0.25379905 4284253849
0.12389868 0.69240916 0.25228345 4286550939
0.12527215 0.69204491 0.25367555 4286751661
0.12706853 0.69133705 0.25449109 4285109414
0.128629 0.69056469 0.25515321 4284780451
0.1303414 0.6894331 0.25554687 4284385692
0.1319378 0.68803948 0.25551608 4284450971
0.13363734 0.68712062 0.25598732 4284648351
0.13516279 0.68611974 0.25687736 4284714145
0.1367882 0.6850068 0.25794885 4284780195
0.13830891 0.68414742 0.25846925 4284845989
0.13982962 0.68328798 0.25898969 4284911781
0.14142177 0.68227255 0.2592136 4285043366
0.14334218 0.68095595 0.259229 4285043365
0.14461288 0.68023783 0.25966385 4284977572
0.12081592 0.69170219 0.25276351 4283651669
0.12251744 0.69184458 0.25407019 4283783512
0.12392072 0.69150871 0.25497201 4284508266
0.13296933 0.68689692 0.25799012 4284713630
0.13448593 0.68603987 0.25850916 4284714146
0.13625531 0.68503994 0.25911465 4284845988
0.13802466 0.68404001 0.25972018 4284912038
0.13954127 0.6831829 0.26023921 4284977831
0.14138246 0.68168956 0.25997287 4284978086
0.1429401 0.68058288 0.26005778 4284978085
0.14429304 0.67964375 0.26151538 4285043879
0.14580715 0.67837322 0.26223451 4285241002
0.14744025 0.67713189 0.26275694 4285240745
0.14877205 0.67571723 0.26244739 4285371817
0.11007038 0.69711494 0.25162414 4284177753
0.11127158 0.69596994 0.25138324 4283980120
0.11278711 0.69441581 0.25155231 4283848278
0.11396186 0.69352955 0.25170028 4283585619
0.11675741 0.69194973 0.252657 4283454290
0.11786441 0.69154644 0.25328991 4283454290
0.11973519 0.69124311 0.25424448 4283520083
0.12139869 0.69108295 0.25526908 4283454547
0.14738402 0.67690068 0.26408276 4285241003
0.14864784 0.67618644 0.26451528 4285240746
0.15018588 0.67448658 0.26408696 4285437867
0.15175596 0.67283785 0.26539657 4285700013
0.15302323 0.6721217 0.26583028 4285831598
0.15471153 0.67083406 0.26602697 4286291378
0.15589499 0.66983169 0.2660509 4286882486
0.11092 0.6954903 0.25257322 4283849047
0.11213456 0.69411594 0.25339323 4283716949
0.11384936 0.69316238 0.25389886 4283454291
0.11548353 0.69225585 0.25436878 4283454290
0.11754327 0.69124508 0.25426942 4283454290
0.11882841 0.6911884 0.25546983 4283388497
0.15472125 0.6709041 0.26775327 4286357172
0.15539402 0.67018914 0.26760325 4286750901
0.15710847 0.66849786 0.26923284 4286090908
0.15834889 0.66762066 0.26976779 4284771188
0.087246574 0.70533627 0.2469808 4281283893
0.15692122 0.66719413 0.27005222 4287998390
0.1573817 0.66613203 0.27054381 4285497226
0.078152701 0.7072562 0.24352594 4281349686
0.079103649 0.70706111 0.24422693 4281284406
0.081178173 0.70689911 0.24577892 4281218613
0.083168149 0.7061801 0.24610737 4281218613
0.084302306 0.7057668 0.24674621 4281284406
0.086911887 0.70490873 0.24725278 4281218356
0.15689634 0.6648519 0.27128455 4286814887
0.15769507 0.66323417 0.27016446 4284903032
0.073499322 0.70833594 0.24290498 4281086257
0.075028859 0.70793074 0.2439274 4281217843
0.076842047 0.70717013 0.24460725 4281218100
0.07862772 0.70678926 0.2457308 4281349686
0.080599733 0.70662594 0.24625212 4281218613
0.15642968 0.66377187 0.27220309 4287342259
0.15662959 0.66212541 0.27165899 4285959322
0.07201267 0.7096287 0.24447297 4281218098
0.073023714 0.70905733 0.24481897 4281020719
0.074793093 0.7080574 0.24542449 4281086514
0.076309673 0.70720035 0.2459435 4281218100
0.15624207 0.66025555 0.27244219 4286419616
0.15722041 0.65902203 0.27351838 4284573551
0.15678534 0.6586374 0.27541694 4285298817
0.15779945 0.65767503 0.27482775 4286348415
0.15662149 0.65749663 0.27613389 4284311665
0.15712702 0.65721095 0.2763069 4284443251
0.25078642 0.81491905 0.17279719 4280954420
0.24833062 0.81431746 0.17320368 4280824370
0.24926384 0.81410098 0.17332819 4280824116
0.24417783 0.81417751 0.17334116 4281021236
0.24519718 0.81360149 0.17368998 4281021493
0.24672259 0.81367201 0.17362753 4281087545
0.24176228 0.81414384 0.17339122 4280824372
0.24301696 0.81376785 0.17361185 4280889909
0.24418138 0.81324297 0.17392686 4281086775
0.23790669 0.81386703 0.17361093 4280889649
0.24036603 0.81353408 0.17379013 4280758578
0.24180888 0.81302953 0.17408907 4280758580
0.23409203 0.81397116 0.17359135 4280889135
0.23549181 0.81364638 0.17377815 4280955184
0.23155084 0.81354219 0.17389067 4280692269
0.23282143 0.8137567 0.17374101 4280692269
0.22807641 0.81332976 0.17406547 4280626477
0.23011152 0.8131122 0.17417742 4280692269
0.22417846 0.8130458 0.17429015 4280363306
0.22594151 0.81304419 0.17427005 4280429099
0.22731546 0.81282723 0.17438956 4280560684
0.22275196 0.81243092 0.17469263 4280560173
0.22140317 0.81175435 0.17513284 4280757551
0.21926829 0.81146878 0.17533742 4280889396
0.21316653 0.81118685 0.17558724 4280692271
0.21456632 0.81086206 0.17577404 4280889650
0.2162202 0.81058013 0.1759309 4281545014
0.21774636 0.81046373 0.17598557 4281412401
0.21181214 0.81070882 0.17590307 4280954672
0.21359357 0.81032377 0.17612305 4281282355
0.20881867 0.81032819 0.17617752 4280954674
0.21028788 0.81032681 0.17616075 4281086516
0.20630735 0.80946785 0.17674685 4282729286
0.20774667 0.80989784 0.17646009 4281216308
0.20317388 0.80875182 0.17723316 4285883246
0.20453058 0.8086068 0.1773078 4288450199
0.19859405 0.80947495 0.17683482 4280824114
0.20068082 0.80904168 0.17708136 4282333758
0.20215811 0.80839336 0.17747003 4287660679
0.19656248 0.80875796 0.17730856 4281412914
0.1980879 0.80882841 0.17724611 4282597186
0.19363901 0.80854493 0.17747708 4281612090
0.19554669 0.80839944 0.17754543 4283123273
0.19198969 0.80761194 0.17808163 4286017140
0.18826047 0.80754352 0.17816922 4282662471
0.1894054 0.80736274 0.17826881 4284438110
0.1908052 0.80703795 0.17845561 4288910232
0.18419027 0.80797857 0.17794529 4280692528
0.18535469 0.80745375 0.1782603 4282137662
0.18660936 0.80707777 0.17848092 4284305749
0.18012361 0.80747908 0.17830707 4280889393
0.18266718 0.80728507 0.17839822 4281611321
0.17630826 0.80777019 0.17817037 4280561455
0.17780736 0.80733746 0.17842361 4280627248
0.17978621 0.80704808 0.17858127 4281545782
0.17334177 0.80773699 0.17822672 4280823857
0.17560355 0.80733949 0.17844874 4280692784
0.17673533 0.80690712 0.17870617 4280627248
0.1711397 0.80727172 0.17854472 4280758577
0.17266515 0.80734223 0.17848225 4280823857
0.16808955 0.80694383 0.17878677 4280824625
0.16986911 0.80705726 0.17869438 4280693041
0.16554832 0.80651486 0.17908609 4280758832
0.16656692 0.8061257 0.17931779 4280693039
0.16097133 0.80649036 0.17915632 4280758580
0.16241299 0.8062973 0.17926002 4280692787
0.16351604 0.8059848 0.17944269 4280693042
0.15596795 0.80714196 0.17880785 4280889397
0.15789683 0.80618507 0.17938448 4280889397
0.1599986 0.80595207 0.17950533 4280692787
0.16120096 0.80553162 0.17975445 4280626994
0.15215257 0.80743301 0.17867114 4280758321
0.15336213 0.80698258 0.17893896 4280823857
0.15503828 0.8064239 0.17926903 4280823602
0.1495683 0.8071838 0.17885831 4280561457
0.15077785 0.80673337 0.17912614 4280627249
0.15249704 0.80599493 0.17956835 4280693041
0.14702709 0.80675483 0.17915764 4280824114
0.14823663 0.8063044 0.17942546 4280561456
0.14944619 0.80585396 0.17969328 4280627249
0.31202939 0.71304011 0.23591796 4292186769
0.31253904 0.7127521 0.23609237 4292320153
0.14354408 0.80657828 0.17931001 4280889396
0.14542328 0.80600798 0.17964494 4280889395
0.14690498 0.80542499 0.1799926 4280692271
0.30344123 0.71577978 0.23430373 4291391858
0.30490127 0.71520334 0.23464753 4290139738
0.31169197 0.71260911 0.23619215 4291722368
0.31220162 0.7123211 0.23636657 4291723651
0.14088582 0.80571806 0.17988101 4280889396
0.14225976 0.80550116 0.18000053 4280889396
0.30091724 0.71527892 0.23464791 4291851894
0.30244264 0.71534938 0.23458546 4291852152
0.13808976 0.80543309 0.18009314 4280889396
0.14012484 0.8052156 0.18020509 4280954676
0.29947791 0.71484894 0.23493467 4291786102
0.13350992 0.80615622 0.1796948 4280693300
0.13503818 0.80547905 0.1801009 4280824886
0.13681915 0.80521864 0.18024281 4280890166
0.29659927 0.7139889 0.23550819 4291844181
0.12077562 0.81148767 0.17650577 4281218872
0.12255941 0.81047964 0.17711629 4281087032
0.12434322 0.80947155 0.1777267 4280955447
0.12587216 0.80860746 0.17824994 4281021497
0.12740114 0.80774337 0.17877321 4281153340
0.12918493 0.80673534 0.17938372 4280956474
0.13096839 0.80581218 0.17994088 4280824887
0.13274898 0.80565369 0.18001887 4280693300
0.295587 0.71269584 0.23633076 4290722098
0.10269348 0.81890887 0.1720711 4281284925
0.10444283 0.81804454 0.17259185 4281153337
0.10617495 0.81725222 0.17306772 4280956214
0.10770391 0.81638813 0.17359097 4280495410
0.10931899 0.81516457 0.17433852 4280494639
0.11110277 0.81415647 0.17494898 4280494893
0.11212209 0.81358039 0.17529781 4280363052
0.11416071 0.8124283 0.17599548 4280692017
0.11594448 0.81142026 0.17660594 4281218105
0.11796517 0.81052697 0.17714161 4281284666
0.11959466 0.80997914 0.17746545 4281152822
0.12137844 0.80897105 0.17807592 4281152568
0.12316225 0.80796295 0.17868638 4281218362
0.1246912 0.80709887 0.17920962 4281218363
0.12622015 0.80623484 0.17973287 4281087547
0.12796512 0.80530518 0.18029463 4280956217
0.12987033 0.80479372 0.1805924 4280824629
0.29347286 0.71140385 0.23716591 4290391337
0.29457474 0.71140283 0.23715335 4290522921
0.10013434 0.8187387 0.17220843 4281350972
0.10178534 0.81810093 0.17258835 4281219387
0.10354759 0.81718278 0.17314273 4281087544
0.1053314 0.81617463 0.1737532 4280889909
0.10686036 0.8153106 0.17427644 4280429359
0.10852498 0.81443202 0.17480716 4280298029
0.1102557 0.81401348 0.17504875 4280560431
0.11560883 0.81052196 0.17717299 4281284408
0.11705344 0.80955011 0.17776479 4281284408
0.11858241 0.80868608 0.17828804 4281152822
0.12036619 0.80767798 0.1788985 4281284154
0.12214998 0.80666989 0.17950895 4281284154
0.12367893 0.80580586 0.18003219 4281284154
0.12511048 0.80508566 0.18046644 4281153083
0.12690558 0.80429322 0.18094161 4280955961
0.29228956 0.7105183 0.23773512 4290260265
0.096336901 0.81877095 0.17223372 4281349947
0.097593121 0.81830966 0.17250775 4281218873
0.099222608 0.81776184 0.17283161 4281285178
0.10075156 0.81689775 0.17335486 4281153592
0.10253533 0.81588972 0.17396531 4280890420
0.10431915 0.81488162 0.17457578 4280692527
0.10584811 0.81401753 0.17509903 4280429355
0.10730817 0.8134411 0.17544283 4280232491
0.11629601 0.80811304 0.17867458 4281349432
0.11757012 0.80739301 0.17911062 4281284151
0.11935393 0.80638492 0.17972107 4281284665
0.12113772 0.80537683 0.18033153 4281087289
0.12266669 0.8045128 0.18085478 4281087032
0.12389778 0.80397248 0.18117867 4281087031
0.28966454 0.70982581 0.2382006 4291055950
0.29055467 0.70978904 0.23821299 4290198840
0.092845283 0.81863034 0.17236365 4281219130
0.094670877 0.81794298 0.17277263 4281219129
0.09651266 0.81711733 0.17326804 4280955957
0.098041639 0.81625324 0.17379129 4281022007
0.099570587 0.81538922 0.17431453 4280824629
0.10135439 0.81438112 0.17492504 4280495920
0.10313819 0.81337303 0.17553546 4280495407
0.10470842 0.81279647 0.17587799 4280495150
0.11511505 0.8066045 0.17963424 4281021750
0.11638916 0.80588442 0.18007028 4281022006
0.11817294 0.80487639 0.1806808 4281088055
0.11995677 0.80386829 0.18129121 4280824628
0.1214854 0.8030892 0.18176121 4280824373
0.12267374 0.80264366 0.18202619 4280627250
0.28661722 0.70875025 0.23891123 4290990413
0.28814194 0.70900768 0.23873162 4290926678
0.28966808 0.70889121 0.23878631 4290729299
0.088623598 0.81877804 0.17232168 4281086775
0.090235151 0.81848902 0.17248353 4281021752
0.09176413 0.81762493 0.17300679 4281022267
0.093547903 0.81661683 0.17361724 4280956987
0.095331684 0.8156088 0.1742277 4280825401
0.096860677 0.81474471 0.17475095 4280693558
0.098389626 0.81388062 0.17527421 4280430129
0.10017339 0.81287259 0.17588465 4280298541
0.10195722 0.8118645 0.17649512 4280298285
0.10331393 0.81171948 0.17656976 4280429615
0.11367926 0.80523998 0.18050671 4280824886
0.11520822 0.80437589 0.18102996 4280824884
0.11699201 0.80336779 0.18164043 4280890676
0.1187994 0.80252403 0.18214762 4280758577
