# .PCD v0.7 - Point Cloud Data file format
VERSION 0.7
FIELDS x y z rgb
SIZE 4 4 4 4
TYPE F F F U
COUNT 1 1 1 1
WIDTH 1094
HEIGHT 1
VIEWPOINT 0 0 0 1 0 0 0
POINTS 1094
DATA ascii
0.47711986 0.44031408 0.15001847 4282402635
0.47826117 0.43965164 0.15035912 4282402635
0.48047006 0.4378466 0.15015885 4282337096
0.47555587 0.43893933 0.15074527 4282534475
0.47674876 0.43814874 0.15096582 4282402889
0.47225904 0.43902391 0.1514542 4282535245
0.4743152 0.43786627 0.15122497 4282666061
0.47592679 0.43685719 0.15134881 4282206280
0.47012228 0.43897548 0.15172115 4282535245
0.47158369 0.43734974 0.15147653 4282666572
0.46535721 0.44014579 0.15141901 4282731598
0.46686503 0.43939331 0.15178291 4282600267
0.46890819 0.43797106 0.1519454 4282600268
0.46177512 0.44026127 0.15172848 4282796364
0.4625499 0.43968883 0.15204591 4282927950
0.46411154 0.43907359 0.15189873 4282797134
0.46552387 0.43857625 0.15250278 4282665546
0.45853874 0.44048291 0.15192571 4282730571
0.4604131 0.43964043 0.15231287 4282796364
0.46139696 0.43836111 0.15228598 4282862157
0.46296018 0.43774524 0.15213905 4282731087
0.45330301 0.44272417 0.150923 4282600012
0.45446515 0.44186553 0.15139914 4282665291
0.45601457 0.44072068 0.15203397 4282730828
0.45745313 0.43909779 0.15178986 4282730571
0.45822918 0.4385244 0.15210781 4282730571
0.44974172 0.44264346 0.15136795 4282534475
0.45159528 0.44199717 0.15161961 4282534475
0.45310313 0.44124469 0.15198351 4282534475
0.45414892 0.43990931 0.15158035 4282796364
0.44728008 0.44229269 0.1518826 4282468167
0.44883344 0.44167882 0.15173528 4282534473
0.44967324 0.4407829 0.15206836 4282600266
0.44475594 0.44253045 0.15199085 4282665546
0.44553068 0.44195804 0.15230827 4282665546
0.4465642 0.44062382 0.15190564 4282533962
0.44190693 0.44246587 0.1523468 4282467654
0.44268167 0.44189346 0.15266421 4282599240
0.44409856 0.44027245 0.15242113 4282533960
0.43834561 0.4423852 0.15279174 4282599752
0.43983266 0.44182888 0.15302017 4282665546
0.44157031 0.44051063 0.15252957 4282468167
0.435884 0.44203439 0.15330639 4282730569
0.43737099 0.4414781 0.15353483 4282665034
0.43885797 0.44092184 0.15376326 4282731341
0.43335986 0.44227216 0.15341465 4282665289
0.43452197 0.44141352 0.15389077 4282730826
0.43592563 0.43979174 0.15364969 4282862155
0.43670163 0.43921837 0.15396762 4282730829
0.42824909 0.44333634 0.15322474 4282600266
0.43017974 0.4424367 0.153237 4282731596
0.43101448 0.44154093 0.15357043 4282665546
0.43300939 0.44031659 0.15359914 4282730569
0.42385057 0.44441658 0.15294585 4282665546
0.42551282 0.44289213 0.15322159 4282665546
0.42759931 0.44273162 0.15372014 4282666060
0.42899176 0.44111195 0.15347877 4282666061
0.42976776 0.44053859 0.1537967 4282666059
0.41983944 0.44521064 0.15282567 4282862925
0.42100158 0.44435203 0.15330181 4282599754
0.42292827 0.44345289 0.15331404 4282665548
0.4248625 0.44228694 0.15371738 4282599755
0.4173153 0.44544843 0.15293393 4282600268
0.41847742 0.44458979 0.15341005 4282797133
0.41104245 0.44737121 0.15226789 4282600014
0.41220456 0.44651258 0.15274401 4282600014
0.41418159 0.44529265 0.15277164 4282665807
0.41605836 0.44444925 0.15315916 4282600269
0.40664393 0.44845152 0.15198898 4282534475
0.40790451 0.44721681 0.15210512 4282468682
0.40977949 0.44637382 0.15249252 4282468427
0.41155478 0.44590786 0.15323941 4282600014
0.41292116 0.44429338 0.15299726 4282731600
0.40373242 0.44897547 0.15193853 4282665546
0.4050861 0.44736597 0.15169427 4282665546
0.40159565 0.44892707 0.1522055 4282731339
0.40262046 0.44701463 0.15220976 4282731339
0.39874664 0.44886249 0.15256144 4282468169
0.40023363 0.44830623 0.15278988 4282665547
0.39699724 0.44852784 0.15298712 4282665293
0.39266124 0.44901958 0.15311463 4282665546
0.39486048 0.44847944 0.15325408 4282731340
0.3901996 0.44866878 0.15362929 4282402374
0.39201146 0.44841486 0.15361004 4282665546
0.38696322 0.44889042 0.15382653 4282468165
0.38883758 0.44804794 0.15421367 4282533958
0.38443905 0.44912818 0.15393478 4282665032
0.38576141 0.44751891 0.15369375 4282468166
0.37855354 0.45076478 0.15342745 4282665548
0.37979132 0.44953191 0.15354475 4282533962
0.38230228 0.44907978 0.15420175 4282730571
0.38362116 0.44747043 0.15396115 4282599498
0.37492979 0.45127261 0.15346599 4282666059
0.37570453 0.45070019 0.15378341 4282666061
0.37726423 0.44977012 0.15365303 4282600012
0.37914103 0.44892672 0.15404055 4282533962
0.37201828 0.45179662 0.15341553 4282599753
0.37318039 0.45093799 0.15389165 4282600009
0.36955664 0.45144582 0.15393019 4282402374
0.37046683 0.45012701 0.15353018 4282270788
0.37124282 0.44955364 0.15384813 4282402374
0.36670762 0.45138127 0.15428613 4282534216
0.36819461 0.45082498 0.15451457 4282533960
0.36573294 0.45047417 0.15502922 4282402885
0.36255905 0.45010728 0.15563288 4282468424
0.36333379 0.44953483 0.15595029 4282402373
0.36092964 0.44902444 0.15534407 4282402374
0.36209366 0.44816437 0.15582097 4282402374
0.53700912 0.43036398 0.14802139 4282140746
0.53778636 0.42978969 0.14833984 4282140746
0.53564268 0.42974108 0.14860767 4282272331
0.53670967 0.42845029 0.14857987 4282140744
0.53090394 0.43052152 0.14857638 4282534996
0.5327844 0.42967632 0.14896476 4282337358
0.53435004 0.4280352 0.14871958 4282337100
0.53591955 0.4263913 0.14847593 4282140234
0.52876025 0.43047297 0.14884421 4282534996
0.52993011 0.42912072 0.14843933 4282403410
0.53109789 0.42825794 0.14891776 4282534740
0.53285378 0.42671666 0.14919506 4282402639
0.52363288 0.43154055 0.14865367 4282468686
0.52562082 0.43063328 0.14866506 4282469201
0.52656943 0.42940551 0.14901474 4282666581
0.52875698 0.42810714 0.14866547 4282534993
0.53012151 0.42685372 0.1487834 4282534993
0.52116323 0.43118864 0.14917001 4282403407
0.52265513 0.43063056 0.14939918 4282337614
0.52420437 0.42899099 0.14915468 4282337614
0.52556449 0.4277381 0.14927262 4282534993
0.51863092 0.43142718 0.14927861 4282533967
0.51940817 0.43085292 0.14959706 4282468174
0.52114159 0.42882454 0.14899208 4282534223
0.52249998 0.42757171 0.14911026 4282534221
0.51577264 0.43136242 0.14963572 4282468169
0.51654989 0.43078813 0.14995417 4282533962
0.51808929 0.42914879 0.14971057 4282665295
0.51963246 0.42750672 0.14946853 4282599503
0.51219982 0.43128142 0.1500821 4282598730
0.51387489 0.43033481 0.14995076 4282402119
0.51555288 0.42938775 0.14981934 4282599755
0.5097301 0.43092951 0.15059842 4282598731
0.51132166 0.43030918 0.15045154 4282598731
0.51236349 0.42901903 0.15042594 4282598731
0.50680923 0.43145522 0.1505478 4282467657
0.50797504 0.43059376 0.15102547 4282533195
0.50911134 0.42924175 0.15062414 4282402378
0.50207043 0.43223566 0.15051651 4282271561
0.50404674 0.43132871 0.15052891 4282271821
0.50564593 0.42936361 0.15030304 4282140235
0.50735343 0.42890546 0.15105189 4282206028
0.49804631 0.4330323 0.15039593 4282337096
0.49921221 0.43217087 0.15087362 4282337096
0.5012657 0.43093759 0.15090227 4282271816
0.50278103 0.42929846 0.15066113 4282272073
0.50445217 0.4283503 0.15053129 4282206026
0.49479946 0.43325466 0.15059382 4282336583
0.49681401 0.43195432 0.15087824 4282402376
0.49832711 0.4311991 0.15124349 4282533962
0.49996701 0.4294647 0.15105569 4282468426
0.50197452 0.42799723 0.1510493 4282402889
0.49110121 0.43435463 0.15022475 4282533707
0.4922671 0.4334932 0.15070242 4282402121
0.49415645 0.43157065 0.15061952 4282336584
0.49532422 0.43070784 0.15109797 4282402121
0.48801664 0.43419158 0.1500622 4282467917
0.48960641 0.43311048 0.15044348 4282401867
0.49112242 0.43163693 0.1504949 4282467402
0.49312043 0.43017182 0.15048788 4282336329
0.49390018 0.42959571 0.15080737 4282336329
0.48542866 0.43455857 0.15029114 4282533966
0.48695999 0.43253103 0.15032099 4282402123
0.48788893 0.43130314 0.15067285 4282336586
0.48947313 0.43068296 0.15052667 4282532940
0.47935471 0.43704793 0.14961451 4282402635
0.48136091 0.43574965 0.14989841 4282600014
0.48294789 0.43466911 0.15027958 4282665550
0.48393929 0.43204209 0.15017579 4282599758
0.48471907 0.43146592 0.15049528 4282467915
0.47845435 0.43594575 0.15017985 4282468427
0.48011872 0.43467307 0.15038082 4282534221
0.48116365 0.43263447 0.15047143 4282534478
0.47519264 0.4357698 0.15096563 4282403147
0.4773809 0.4341543 0.15063459 4282206025
0.47870314 0.43290606 0.15075338 4282271819
0.47304896 0.43572119 0.15123346 4282731852
0.47451797 0.43408984 0.15099195 4282600012
0.47599071 0.43245572 0.15075196 4282402636
0.46753296 0.43707591 0.15088372 4282665546
0.46869886 0.43621448 0.15136139 4282599755
0.47065708 0.43530974 0.15137424 4282797132
0.4717755 0.43357086 0.15124644 4282862671
0.47384006 0.43240702 0.15102065 4282928722
0.46467468 0.43701115 0.15124083 4282665548
0.46618742 0.43625623 0.1516059 4282731341
0.46770015 0.43550131 0.151971 4282599755
0.46879217 0.43396008 0.15170731 4282862157
0.47082439 0.43272749 0.15173773 4282993486
0.46330824 0.43638828 0.1518271 4282664781
0.46461725 0.43514243 0.15194575 4282665294
0.46592811 0.43389514 0.15206514 4282731087
0.4674235 0.4333362 0.15229453 4282731087
0.4592841 0.4371849 0.15170653 4282533192
0.46044996 0.43632349 0.1521842 4282862157
0.46189857 0.43469316 0.15194422 4282730571
0.46335098 0.43305999 0.15170579 4282664778
0.45260221 0.43940109 0.1508791 4282600268
0.45448264 0.43855587 0.1512675 4282796364
0.4557845 0.43731177 0.15138571 4282664780
0.45701829 0.43612468 0.15188012 4282730317
0.45871761 0.4348568 0.15176725 4282730316
0.4606705 0.43368405 0.15217319 4282796364
0.45013261 0.43904915 0.15139544 4282666059
0.45162439 0.43849105 0.15162461 4282665546
0.45292422 0.43724671 0.15174322 4282796362
0.45436138 0.43561772 0.15150344 4282664778
0.45611 0.4351548 0.1522512 4282665037
0.45755303 0.4335224 0.15201326 4282599501
0.44760025 0.43928769 0.15150404 4282599755
0.44837752 0.43871343 0.15182249 4282599753
0.4498066 0.43708694 0.15158191 4282796362
0.45149678 0.43555284 0.1518614 4282927434
0.44551924 0.43864864 0.1521796 4282600010
0.44694367 0.43702206 0.1519396 4282796875
0.44811147 0.43615922 0.15241805 4282796361
0.44116911 0.43914196 0.15230753 4282468167
0.44311255 0.43823877 0.15232088 4282402885
0.44410172 0.43676001 0.15243341 4282468678
0.44596431 0.43611059 0.15268631 4282731593
0.43869951 0.43879002 0.15282385 4282862157
0.44031507 0.43784949 0.15269473 4282599754
0.44160718 0.43660465 0.15281445 4282600265
0.442754 0.43593901 0.15315677 4282534471
0.43772167 0.43788001 0.15356937 4282730829
0.43913352 0.43625218 0.15333161 4282731087
0.43142843 0.43980905 0.15290116 4282665546
0.43259433 0.43894762 0.15337884 4282730569
0.43459392 0.43771982 0.15340953 4282730826
0.43616927 0.43663961 0.15379165 4282731340
0.43729171 0.43484461 0.15329394 4282731085
0.43878835 0.43428472 0.15352385 4282862673
0.42701566 0.44089282 0.15262136 4282665546
0.42818153 0.44003141 0.15309905 4282665548
0.43016016 0.43873474 0.15338482 4282665547
0.43173334 0.43765497 0.15376693 4282665289
0.43338677 0.43631956 0.15391086 4282665546
0.43436542 0.434838 0.15402649 4282731339
0.43592083 0.43421972 0.15388212 4282665546
0.42376873 0.4411152 0.15281925 4282731341
0.42574498 0.4398191 0.15310486 4282468425
0.42731699 0.43873963 0.15348689 4282600012
0.42896652 0.43740475 0.15363087 4282665548
0.43034095 0.43619114 0.15392421 4282665548
0.43203905 0.43549851 0.15463421 4282665546
0.43344319 0.43386668 0.15440011 4282731339
0.42007053 0.44221514 0.15245017 4282731082
0.42123643 0.44135374 0.15292785 4282862412
0.42301083 0.43944392 0.15284854 4282731340
0.42417863 0.43858108 0.153327 4282534220
0.42557004 0.43695423 0.15309079 4282534220
0.42673972 0.43609002 0.15357001 4282731600
0.41494319 0.44328275 0.15225965 4282469198
0.41698435 0.4417353 0.1523058 4282534989
0.41859096 0.44052896 0.15256862 4282862412
0.42019838 0.43932238 0.15283163 4282927947
0.41053039 0.44436654 0.15197985 4282468682
0.41218653 0.44283956 0.15225804 4282600014
0.41406792 0.44199362 0.15264682 4282469198
0.41577607 0.4404085 0.15255122 4282535245
0.41771743 0.43923724 0.15295739 4282731852
0.41899231 0.43799278 0.15307878 4282862155
0.40644354 0.44575369 0.15145156 4282534217
0.40799809 0.44460511 0.15208845 4282534473
0.40975106 0.44270054 0.15200779 4282468682
0.41091883 0.44183773 0.15248625 4282600268
0.40397394 0.44540176 0.15196788 4282731339
0.40533113 0.44378608 0.15172754 4282599753
0.40708202 0.44187954 0.15164849 4282665802
0.4006643 0.44621459 0.15175803 4282731341
0.40125355 0.44477209 0.15178649 4282665549
0.40256104 0.443344 0.15172656 4282600011
0.398132 0.44645312 0.15186663 4282402122
0.39890924 0.44587886 0.15218508 4282533708
0.40002343 0.44358289 0.15183549 4282468428
0.40128407 0.44234195 0.15195598 4282534475
0.39455917 0.44637215 0.15231302 4282862926
0.39613903 0.44543773 0.15218349 4282731341
0.39772186 0.44450292 0.15205388 4282533708
0.39907056 0.44288561 0.15181561 4282336842
0.39170086 0.44630739 0.15267012 4282599753
0.3936176 0.44540805 0.15268368 4282797132
0.3952482 0.44415042 0.15257105 4282797134
0.38923123 0.44595546 0.15318646 4282468165
0.39075777 0.44534326 0.15304096 4282599751
0.3916696 0.4440693 0.15301815 4282665545
0.38669893 0.44619399 0.15329506 4282599752
0.38747615 0.44561973 0.15361351 4282731338
0.38888931 0.44362724 0.15301827 4282599751
0.39014098 0.4423863 0.15313971 4282665544
0.38157153 0.4472616 0.15310453 4282665035
0.38289252 0.44564894 0.15286604 4282730571
0.38440731 0.4448925 0.15323198 4282533449
0.38627028 0.44424337 0.15348461 4282665548
0.37754738 0.44805825 0.15298396 4282665548
0.37871328 0.44719681 0.15346164 4282468169
0.38062298 0.446298 0.15347561 4282599755
0.38152388 0.44502506 0.15345326 4282533962
0.38348565 0.44380143 0.1534851 4282468169
0.37462643 0.44858396 0.15293334 4282600009
0.37625352 0.44706038 0.15321229 4282599754
0.37749317 0.44582301 0.1533325 4282336583
0.37841934 0.44449592 0.15293655 4282468169
0.37215677 0.44823202 0.15344967 4282468167
0.37346256 0.44662094 0.15321173 4282402375
0.37477204 0.44500706 0.15297534 4282468169
0.36741808 0.44901246 0.15341838 4282731337
0.36897507 0.44800794 0.15354501 4282467909
0.37053367 0.44700283 0.15367188 4282402117
0.37151462 0.44523016 0.15317385 4282402374
0.37301129 0.44467023 0.15340377 4282468169
0.36611524 0.44794312 0.15390231 4282533958
0.36767232 0.44693795 0.15402932 4282467908
0.36862376 0.44521797 0.15390652 4282467395
0.37014377 0.44460526 0.15376203 4282467397
0.36435923 0.44746339 0.15483944 4282468166
0.36577961 0.44510016 0.15389037 4282402373
0.36350518 0.44580239 0.15487202 4282468167
0.53462058 0.42467946 0.14859262 4282271056
0.53540164 0.4241024 0.14891262 4282205519
0.52829677 0.42661786 0.14792117 4282534993
0.52946836 0.42575225 0.14840117 4282403407
0.53168541 0.42520773 0.14854173 4282468944
0.53285694 0.42434213 0.14902174 4282402639
0.52731425 0.42570341 0.1486703 4282469200
0.5288133 0.42514262 0.14890058 4282468943
0.52366102 0.42621541 0.14870913 4282468428
0.52117944 0.42586178 0.14922798 4282665295
0.51524615 0.42751163 0.14871654 4282730317
0.51674521 0.42695084 0.14894682 4282730574
0.5186348 0.42610148 0.14933711 4282665295
0.51387304 0.42688572 0.14930566 4282533451
0.5153721 0.42632493 0.14953595 4282599501
0.51100093 0.42682064 0.14966449 4282336586
0.50702024 0.42702779 0.14995305 4282074955
0.50884682 0.42677182 0.14993362 4282206028
0.50414807 0.4269627 0.15031189 4282206026
0.50636512 0.42641816 0.15045246 4282074953
0.50010437 0.42776322 0.15019073 4282468169
0.50127596 0.42689762 0.15067072 4282533962
0.50349301 0.4263531 0.1508113 4282140233
0.49716923 0.42829144 0.15013985 4282598985
0.49834079 0.42742583 0.15061985 4282731084
0.49123594 0.4299413 0.14962842 4282467147
0.4924075 0.42907569 0.15010841 4282467147
0.49429706 0.42822638 0.1504987 4282401609
0.48986289 0.42931542 0.15021753 4282532940
0.49175245 0.42846608 0.15060782 4282336331
0.492924 0.42760047 0.15108782 4282336331
0.48581916 0.43011594 0.15009639 4282336329
0.48699072 0.42925033 0.15057638 4282336585
0.48255649 0.43033937 0.15029523 4282534221
0.48372805 0.42947376 0.15077522 4282533708
0.47779477 0.43112361 0.15026377 4282468430
0.47962135 0.43086764 0.15024436 4282534991
0.47531313 0.43076998 0.15078261 4282731602
0.47713971 0.43051398 0.15076318 4282599503
0.47309607 0.4313145 0.15064204 4282928466
0.47387704 0.43073741 0.15096202 4282928468
0.46983337 0.43153793 0.15084088 4283124559
0.47172296 0.43068862 0.15123115 4283124816
0.47322202 0.4301278 0.15146145 4282862675
0.46696123 0.43147284 0.15119971 4282731087
0.46917835 0.43092832 0.15134029 4283124559
0.47034991 0.43006271 0.15182029 4283256915
0.46480712 0.43142402 0.15146884 4282862157
0.4596549 0.43249679 0.15127739 4282730317
0.46154445 0.43164745 0.15166767 4282533449
0.46304351 0.43108666 0.15189797 4282796364
0.4556112 0.43329731 0.15115623 4282599755
0.45678276 0.4324317 0.15163623 4282665294
0.45899984 0.43188718 0.15177681 4282533708
0.46017137 0.43102154 0.1522568 4282599755
0.45306659 0.43353701 0.15126537 4282861641
0.45423812 0.4326714 0.15174536 4282664777
0.45540968 0.43180576 0.15222536 4282796620
0.44941342 0.43404898 0.15130422 4283058760
0.45058492 0.4331834 0.1517842 4282992710
0.44582322 0.43396762 0.15175276 4282665801
0.4476918 0.43331608 0.15200646 4282730823
0.44921187 0.43255749 0.15237333 4282927172
0.44334158 0.43361399 0.1522716 4282402887
0.44516817 0.43335801 0.15225218 4282600008
0.44633973 0.43249241 0.15273216 4282599751
0.44079697 0.43385369 0.15238072 4282599756
0.4375973 0.43348378 0.15298927 4282731341
0.43909636 0.43292299 0.15321957 4282665807
0.43622422 0.4328579 0.1535784 4282665546
0.43772328 0.43229708 0.15380868 4282665546
0.43029097 0.43450776 0.15306696 4282797134
0.4314625 0.43364215 0.15354696 4282731340
0.43485114 0.43223199 0.15416753 4282665546
0.4277463 0.43474746 0.15317608 4282665806
0.42852736 0.4341704 0.15349607 4282665806
0.42135954 0.43727919 0.15209493 4282993739
0.42324913 0.43642983 0.15248522 4282796618
0.42481118 0.43527573 0.15312521 4282600011
0.41659781 0.43806341 0.15206349 4282535245
0.41815987 0.43690929 0.15270348 4282600524
0.41998646 0.43665329 0.15268406 4282993741
0.41249114 0.4394573 0.15153262 4282534476
0.41366267 0.43859169 0.15201262 4282600014
0.40844744 0.44025779 0.15141146 4282665805
0.40961897 0.43939218 0.15189146 4282731341
0.40362269 0.4416354 0.15097031 4282534219
0.40551227 0.44078603 0.15136059 4282665548
0.40224963 0.44100949 0.15155943 4282402889
0.39742491 0.44238707 0.15111828 4282665548
0.39455274 0.44232199 0.15147711 4282797132
0.39676985 0.44177747 0.15161769 4282599753
0.39207113 0.44196835 0.15199596 4282665544
0.39389771 0.44171235 0.15197653 4282731339
0.38593632 0.44212669 0.15255363 4282796364
0.3881534 0.44158217 0.15269421 4282599753
0.38932496 0.44071656 0.15317421 4282599753
0.38189265 0.44292718 0.15243247 4282468169
0.38306415 0.4420616 0.15291247 4282468169
0.38528129 0.44151706 0.15305305 4282599755
0.37934801 0.44316691 0.15254161 4282468169
0.38012904 0.44258985 0.1528616 4282402376
0.37608534 0.44339034 0.15274045 4282402376
0.37171412 0.44388607 0.152869 4282402374
0.37321317 0.44332528 0.15309928 4282468168
0.37034103 0.44326016 0.15345812 4282401604
0.37184009 0.44269937 0.15368842 4282730569
0.36746889 0.44319504 0.15381697 4282467395
0.36492428 0.44343477 0.15392609 4282467397
0.53142351 0.4238154 0.14832114 4282534481
0.53312069 0.42223266 0.1484295 4282271309
0.53403443 0.42127267 0.14884028 4282271565
0.52782315 0.42324054 0.1478906 4282403406
0.5302431 0.42279664 0.14855176 4282599758
0.5308941 0.42152008 0.14876367 4282402637
0.52482462 0.42485729 0.14830908 4282534734
0.52560687 0.4242793 0.14862961 4282600271
0.52644569 0.42261261 0.14848162 4282469198
0.52310926 0.42343205 0.14827007 4282665294
0.5242846 0.42256364 0.1487516 4282665551
0.51717848 0.42557758 0.14863701 4282665294
0.51833224 0.4242188 0.14823851 4282665294
0.51983607 0.4236562 0.14846955 4282665295
0.52134001 0.42309359 0.14870057 4282599501
0.5155468 0.42461765 0.14867106 4282467915
0.51767504 0.4236072 0.14873955 4282665294
0.5184586 0.42302826 0.14906058 4282600014
0.51289797 0.42439398 0.14870799 4282468171
0.50854808 0.42538202 0.14971526 4282338127
0.51014781 0.42475802 0.14957005 4282271820
0.51047158 0.42344394 0.14963952 4282206539
0.50567132 0.42531678 0.15007468 4282206026
0.50731194 0.42429629 0.15020341 4282140489
0.50903082 0.42341128 0.14981952 4282140746
0.50981438 0.42283237 0.15014054 4282140746
0.50314164 0.4244712 0.14971747 4282336842
0.50447023 0.42429921 0.15030666 4282205769
0.50636524 0.42344761 0.15069795 4282206026
0.50019705 0.42500117 0.14966643 4282599498
0.50137234 0.42413273 0.15014797 4282468169
0.49554619 0.4264138 0.1499995 4282532938
0.49718204 0.42539382 0.15012832 4282598987
0.49064395 0.42765701 0.15007003 4282467404
0.49253866 0.4257226 0.14999488 4282336331
0.49430224 0.42532858 0.15048818 4282336331
0.49593815 0.42430794 0.15061744 4282336329
0.48881048 0.42683148 0.14962281 4282598731
0.48998579 0.4259631 0.15010434 4282467402
0.48553735 0.42705566 0.14982229 4282533708
0.48671266 0.42618725 0.15030384 4282533708
0.47999486 0.4295007 0.14993663 4282600271
0.48100558 0.42820796 0.14991629 4282600271
0.48298448 0.42729613 0.14993177 4282534734
0.47670352 0.42864549 0.14966919 4282927698
0.47812572 0.42814267 0.15027605 4282665296
0.48010308 0.42723083 0.15029176 4282600016
0.475326 0.42801759 0.15026022 4282862675
0.47650138 0.42714918 0.15074177 4282862162
0.47244465 0.42795229 0.15062021 4282993744
0.46856362 0.42918003 0.1509992 4282993745
0.46956325 0.42788696 0.1509802 4283059793
0.46626711 0.42978528 0.15123349 4282796109
0.46740219 0.427838 0.1512502 4282797134
0.46818575 0.42725906 0.15157123 4282928720
0.46256191 0.42922002 0.15080762 4282599755
0.4647862 0.42867371 0.15094866 4282796364
0.46596149 0.42780533 0.1514302 4282862157
0.45862091 0.4305056 0.15156141 4282599755
0.46007228 0.42886525 0.15132813 4282665548
0.46190479 0.42860842 0.15130864 4282665547
0.45673594 0.42968467 0.15111658 4282731083
0.45791128 0.42881626 0.15159813 4282730827
0.45202199 0.43154749 0.15154937 4282927174
0.45332938 0.43029442 0.1516732 4282861383
0.45463809 0.42904043 0.15179761 4282862153
0.44842601 0.43146601 0.15199864 4282664774
0.45047274 0.43029889 0.15177713 4282730051
0.45208526 0.42928091 0.15190709 4282992969
0.44437581 0.43226779 0.15187728 4282534473
0.4456771 0.43101528 0.1520014 4282534473
0.44757065 0.43016389 0.15239269 4282599754
0.44920385 0.42921561 0.15226708 4282665544
0.44182709 0.43250787 0.15198658 4282534220
0.44312632 0.43125558 0.15211079 4282534220
0.44481859 0.42971289 0.15239605 4282534220
0.44039115 0.43060705 0.15225101 4282665551
0.44154543 0.42993706 0.15259553 4282731600
0.43691891 0.43120518 0.1534363 4282599753
0.43903473 0.42978069 0.15297903 4282665548
0.44055969 0.42901966 0.15334707 4282731341
0.43286872 0.43200698 0.15331495 4282731339
0.43404216 0.43114001 0.15379572 4282731339
0.43605432 0.42990285 0.15383151 4282599753
0.43767831 0.42895439 0.15370706 4282797134
0.42953771 0.43282509 0.15310374 4282666061
0.43031999 0.4322471 0.15342425 4282600268
0.43172592 0.43060955 0.15319397 4282731598
0.4329012 0.42974114 0.15367551 4282797133
0.42163914 0.43592259 0.15179019 4282993739
0.42242143 0.43534461 0.1521107 4282927946
0.42381465 0.43371204 0.15187831 4282731337
0.42565674 0.43291718 0.15264441 4282797133
0.42760599 0.43200788 0.1526614 4282665548
0.42917308 0.43085003 0.15330344 4282730571
0.42037052 0.43491355 0.15202357 4282928204
0.42121062 0.43400913 0.1523625 4282862153
0.42315751 0.43310043 0.15237933 4282862153
0.42472461 0.43194258 0.15302138 4282927946
0.4146491 0.4372535 0.15161788 4282403405
0.41563803 0.43591347 0.15122418 4282534991
0.41681337 0.43504506 0.15170573 4282469452
0.41798866 0.43417668 0.15218727 4282665805
0.41148156 0.43709669 0.15145995 4282665549
0.41275665 0.43584818 0.15158418 4282600013
0.41354018 0.43526924 0.15190521 4282468940
0.40406185 0.4395296 0.14994749 4282600268
0.40523717 0.43866119 0.15042903 4282731342
0.4074614 0.43811491 0.15057006 4282862927
0.4090285 0.43695706 0.15121213 4282731341
0.40060586 0.44050962 0.15086292 4282534220
0.40268433 0.43890169 0.15053852 4282468683
0.40458 0.43804958 0.15093006 4282665807
0.39877632 0.44076601 0.15088236 4282468169
0.40013152 0.43914217 0.150648 4282600011
0.39589953 0.4407008 0.15124178 4282665546
0.39748132 0.43968853 0.15137115 4282534217
0.39947438 0.43853056 0.15114902 4282600010
0.39302281 0.44063559 0.1516012 4282731337
0.39460301 0.4396233 0.15173075 4282665544
0.39618483 0.43861043 0.15186055 4282533959
0.39173204 0.43963012 0.15183447 4282665544
0.39299124 0.43838364 0.151959 4282533959
0.38726923 0.44050521 0.15232003 4282598985
0.38860595 0.43888092 0.15208797 4282664778
0.39043841 0.43862411 0.1520685 4282599753
0.38454923 0.439684 0.15196642 4282599755
0.38597295 0.43949983 0.15255383 4282533962
0.38794881 0.43826932 0.15258901 4282533962
0.38106146 0.4412581 0.15246823 4282402376
0.38184375 0.44068009 0.15278876 4282402376
0.38277996 0.43934557 0.15239693 4282402376
0.37740242 0.44177091 0.15250714 4282402376
0.37872323 0.44014865 0.15227538 4282336583
0.38029033 0.4389908 0.15291744 4282336583
0.37459549 0.4413287 0.15251024 4282336582
0.37584183 0.44008338 0.15263538 4282270789
0.37106478 0.44087011 0.15260383 4282467397
0.37293938 0.44021645 0.15285836 4282401860
0.37446433 0.43945545 0.15322641 4282270788
0.36890373 0.44082114 0.15287383 4282335810
0.37007904 0.43995273 0.15335537 4282467397
0.36560914 0.44109812 0.15344743 4282467395
0.36719766 0.43988746 0.15371537 4282401602
0.36464483 0.44012794 0.15382485 4282467396
0.36621192 0.43897006 0.1544669 4282533188
0.52827317 0.42186195 0.14758271 4282403405
0.52945036 0.42099217 0.14806502 4282403405
0.53154433 0.41974565 0.14809848 4282271051
0.5323298 0.41916531 0.1484203 4282336844
0.53364021 0.41899535 0.14901014 4282402637
0.52689344 0.42123303 0.14817469 4282403405
0.52879214 0.42037958 0.14856686 4282403405
0.53035885 0.41872272 0.14833261 4282336842
0.53114498 0.4181419 0.14865468 4282402635
0.52250111 0.42173111 0.14830385 4282599501
0.52366471 0.42036679 0.14790815 4282731087
0.52498227 0.42019504 0.14849842 4282731600
0.52027327 0.42227826 0.1481626 4282599501
0.52105808 0.42169839 0.14848414 4282599501
0.51660246 0.4227927 0.14820163 4282534221
0.51863819 0.42131504 0.14819933 4282534221
0.52039987 0.42108583 0.14898597 4282402635
0.51443791 0.42274365 0.14847206 4282533964
0.51194429 0.42238832 0.1489934 4282337869
0.5134207 0.42133182 0.1483475 4282403405
0.51420671 0.42075101 0.14866956 4282271819
0.5090847 0.42123353 0.14888921 4282140746
0.51041389 0.4210611 0.14947869 4282206282
0.50545079 0.42224115 0.1498047 4282206026
0.50770277 0.4206036 0.14948215 4282140233
0.50921154 0.42003921 0.1497139 4282206026
0.50289387 0.42248201 0.14991434 4282271304
0.50481212 0.4205381 0.14984329 4282271049
0.49857238 0.42311707 0.14953071 4282664523
0.5001002 0.42235449 0.1498995 4282533962
0.4952231 0.42320463 0.15024333 4282336329
0.49732533 0.42202824 0.15002224 4282467915
0.49896744 0.42100424 0.15015323 4282599755
0.49148902 0.42431527 0.14987066 4282533195
0.49266621 0.42344549 0.15035297 4282402122
0.49456811 0.42150316 0.15028262 4282402122
0.48821059 0.42453983 0.15007046 4282730317
0.48994306 0.42298937 0.15035671 4282598731
0.48264107 0.4259077 0.14971732 4282600014
0.48462379 0.42499357 0.14973398 4282599758
0.48555732 0.42375591 0.15009229 4282534221
0.48683086 0.42391092 0.15066242 4282665294
0.47975501 0.42584231 0.15007789 4282731089
0.48173624 0.42492816 0.15009481 4282599760
0.48275188 0.42362973 0.15007783 4282533967
0.48465365 0.42277494 0.15047064 4282468430
0.47759047 0.4257932 0.15034832 4282731088
0.47868216 0.42443541 0.1499559 4282796881
0.4794682 0.42385462 0.15027796 4282665295
0.47429097 0.42621651 0.15041088 4282993746
0.4758184 0.42545423 0.15077952 4282927698
0.47690719 0.4240959 0.15038779 4282796880
0.46991974 0.42651585 0.15067728 4282928720
0.47150314 0.42589211 0.15053362 4282994000
0.47250783 0.42459479 0.15051717 4282994256
0.46703374 0.42645043 0.15103786 4282797134
0.46854004 0.42588693 0.15126927 4282862927
0.47033986 0.42454565 0.15078804 4282862927
0.4711259 0.42396483 0.1511101 4282928720
0.46451461 0.42646962 0.15048122 4282665292
0.46554747 0.42533493 0.15075637 4282796877
0.4615275 0.42722213 0.1510964 4282731597
0.46317467 0.42627054 0.15097153 4282402631
0.45936295 0.42717308 0.15136683 4282862668
0.46081847 0.42552707 0.15113708 4282797132
0.45608455 0.42739755 0.15156662 4282796360
0.4577913 0.42584944 0.15185408 4282796361
0.45129985 0.42818558 0.15153503 4282796360
0.45335507 0.42701453 0.15131532 4282861896
0.45497376 0.42599317 0.15144704 4282927946
0.4488062 0.42783028 0.15205637 4282665546
0.45044318 0.42687914 0.15193227 4282665545
0.45208311 0.42592767 0.15180817 4282797130
0.44624928 0.42807114 0.15216604 4282665804
0.44703409 0.42749128 0.15248758 4282731598
0.44297084 0.42829564 0.15236583 4282600271
0.44468781 0.42681807 0.1523982 4282534734
0.44630182 0.42579663 0.15253049 4282666061
0.43975574 0.42792395 0.15297733 4282731341
0.44177818 0.42668277 0.15301485 4282600012
0.44341117 0.42573109 0.15289164 4282600014
0.43726209 0.42756858 0.15349866 4282797134
0.43909752 0.42731139 0.15347916 4282797134
0.44091356 0.42537522 0.1534138 4282599756
0.43392038 0.42838934 0.15328678 4282665547
0.4350976 0.42751953 0.15376909 4282599754
0.42717364 0.43062702 0.15245132 4282796364
0.42874324 0.42946729 0.15309441 4282730571
0.43069729 0.4285551 0.15311293 4282927950
0.43193471 0.42735708 0.15361461 4282862157
0.43395317 0.42611536 0.15365303 4282796364
0.43473923 0.42553455 0.15397508 4282862157
0.42271805 0.43172133 0.15216881 4282862153
0.42428762 0.4305616 0.15281188 4282993739
0.42623925 0.42965001 0.15283026 4282862155
0.42747554 0.42845228 0.15333186 4282730571
0.42876774 0.42719504 0.15346035 4282927949
0.43066949 0.42634025 0.15385315 4282862155
0.41898391 0.432832 0.15179615 4282797391
0.4201611 0.43196222 0.15227847 4282796618
0.42194679 0.43003348 0.1522112 4282796873
0.42312589 0.42916229 0.15269428 4282928716
0.42391196 0.42858148 0.15301634 4282994509
0.41452828 0.43392631 0.15151364 4282534733
0.41580901 0.43267357 0.15164013 4282469452
0.40660435 0.43703377 0.15019587 4282928466
0.4078787 0.43578351 0.1503213 4282796880
0.40983218 0.4346036 0.15073228 4282665550
0.41157895 0.43445712 0.15146253 4282665548
0.41295788 0.43282279 0.15123293 4282666061
0.40332592 0.4372583 0.15039566 4282600014
0.40531886 0.43602479 0.15043101 4282731600
0.40721998 0.43517047 0.15082355 4282665807
0.40888813 0.43362844 0.15111099 4282665294
0.40149048 0.4375155 0.15041518 4282402889
0.39860448 0.43745011 0.15077575 4282600266
0.40011078 0.43688658 0.15100715 4282534473
0.39650327 0.43680483 0.15145786 4282666057
0.39794627 0.43683752 0.15127757 4282600264
0.39873108 0.43625766 0.15159912 4282666059
0.39394632 0.43704572 0.15156752 4282665545
0.39473113 0.43646583 0.15188907 4282665545
0.39066792 0.43727022 0.15176731 4282664777
0.39217424 0.43670672 0.15199871 4282598983
0.38627559 0.43776834 0.15189649 4282599755
0.38745281 0.43689853 0.15237881 4282533962
0.38904062 0.43595472 0.15225495 4282468169
0.38371867 0.4380092 0.15200615 4282533962
0.38450345 0.43742931 0.1523277 4282599755
0.38544595 0.43609017 0.15193845 4282731341
0.38161746 0.43736392 0.15268826 4282402376
0.38294834 0.43573424 0.15246063 4282468169
0.37604791 0.43873182 0.15233512 4282336583
0.37755421 0.43816832 0.15256652 4282336583
0.37920824 0.4368467 0.15208738 4282402376
0.37316191 0.4386664 0.1526957 4282401604
0.37468928 0.43790418 0.15306433 4282336069
0.37630913 0.43656334 0.15321571 4282270533
0.37178218 0.43803748 0.15328766 4282270018
0.37342137 0.43649787 0.15357649 4282270018
0.36889616 0.43797207 0.15364824 4282598982
0.37053397 0.43650481 0.15368198 4282336068
0.3721084 0.43548858 0.15381494 4282204995
0.36450386 0.43847016 0.15377742 4282467397
0.36568102 0.43760034 0.15425973 4282598983
0.36757976 0.43674693 0.1546519 4282467653
0.36888811 0.43511626 0.15442741 4282402117
0.36351654 0.43755129 0.15453015 4282401602
0.3646937 0.43668151 0.15501247 4282598982
0.36626333 0.43552178 0.15565556 4282401862
0.36756963 0.43388918 0.15543267 4282336326
0.36220011 0.43632618 0.15553382 4282335810
0.3633773 0.4354564 0.15601613 4282401604
0.36494693 0.43429667 0.15665922 4282467398
0.36625108 0.43266207 0.15643795 4282336325
0.36121282 0.43540731 0.15628657 4282335809
0.36238998 0.43453753 0.15676887 4282336323
0.36408311 0.43261293 0.15670881 4282533960
0.53337705 0.41709578 0.14791901 4282469200
0.52811986 0.41877532 0.14731301 4282469198
0.52930081 0.41790274 0.14779688 4282469198
0.53087091 0.41624162 0.14756525 4282402122
0.5325824 0.41577882 0.14831696 4282534220
0.52561826 0.41841882 0.14783604 4283061335
0.52723575 0.4177905 0.14769197 4282929749
0.5281086 0.41687775 0.14803319 4282534990
0.53020954 0.41562611 0.14806949 4282402376
0.53178668 0.41446081 0.14871567 4282730569
0.52265948 0.41895133 0.14778475 4282533965
0.52384049 0.41807875 0.14826863 4282599757
0.51667845 0.42061448 0.1472692 4282534221
0.51785946 0.41974187 0.14775306 4282468428
0.52009434 0.41919297 0.14789477 4282468428
0.52164972 0.41753393 0.1476633 4282402635
0.51601815 0.41999996 0.14777264 4282534221
0.516707 0.41895181 0.14802454 4282337099
0.51279271 0.41962704 0.14838609 4282140746
0.51357996 0.41904533 0.14870866 4282272332
0.51101488 0.41928697 0.14881867 4282271819
0.50851327 0.41893047 0.14934169 4282206026
0.51035458 0.41867244 0.14932211 4282403405
0.50634181 0.4188813 0.14961296 4282140233
0.50149941 0.42007059 0.14930594 4282402376
0.50303173 0.41930589 0.14967574 4282336840
0.49825281 0.41989708 0.14978172 4282533708
0.50024962 0.41897851 0.14980005 4282467914
0.50166875 0.4184756 0.15040728 4282467915
0.49608138 0.41984788 0.15005301 4282402122
0.49759841 0.41818985 0.14982498 4282336586
0.49161148 0.42094567 0.14976959 4282467915
0.49279243 0.42007309 0.15025344 4282467915
0.49453309 0.4185167 0.15054309 4282665037
0.48755637 0.42155325 0.14978513 4282665296
0.48871619 0.42088005 0.15013131 4282665296
0.49009216 0.41968429 0.15000299 4282665296
0.49173501 0.41865745 0.15013593 4282665296
0.48312882 0.42225233 0.14977705 4282599503
0.48430976 0.42137975 0.15026091 4282533710
0.48629916 0.42046195 0.15027949 4282796112
0.48772573 0.41995826 0.15088648 4282862675
0.48883513 0.41859177 0.15049824 4282862675
0.4805637 0.42249396 0.14988706 4282731088
0.48135105 0.42191222 0.15020964 4282664782
0.4828445 0.42025751 0.14998186 4282730831
0.48402739 0.41938356 0.15046649 4282599502
0.47536996 0.42357537 0.14969406 4282993489
0.47727475 0.42271921 0.15008749 4282927953
0.47828647 0.42141753 0.15007326 4282862159
0.48027527 0.42049956 0.15009204 4282730574
0.47286832 0.42321888 0.15021709 4282862927
0.47445777 0.42259309 0.15007427 4283059281
0.47531661 0.42168161 0.15041614 4282993744
0.47737542 0.42043382 0.15045434 4282927951
0.4695794 0.42344415 0.15041752 4282862927
0.47148421 0.42258796 0.15081096 4282862927
0.47256765 0.42122567 0.15042259 4282862927
0.47408122 0.42065942 0.15065511 4282862927
0.46701431 0.42368579 0.15052754 4282797134
0.46819529 0.42281321 0.15101139 4282928720
0.46260789 0.42418545 0.15065712 4282402887
0.46426034 0.42323089 0.15053384 4282600267
0.46591568 0.42227593 0.15041044 4282797647
0.46175671 0.42287418 0.15105726 4282599240
0.46341008 0.42191887 0.15093431 4282665546
0.45938247 0.42381257 0.15127057 4282862154
0.46041468 0.42267454 0.15154816 4282796362
0.45418873 0.42489398 0.15107757 4282862153
0.45609352 0.42403784 0.151471 4283059532
0.45782885 0.42255428 0.15150554 4282927946
0.45945451 0.42152897 0.1516393 4282862153
0.45168713 0.42453751 0.15160058 4282862925
0.45319828 0.42397222 0.15183273 4282731595
0.45510304 0.42311603 0.15222616 4283125325
0.45655462 0.42146325 0.1520016 4282797130
0.44872835 0.42507002 0.15154931 4282665546
0.45043382 0.42351758 0.15183999 4282797132
0.44510925 0.424988 0.15200147 4282666061
0.44589657 0.42440629 0.15232404 4282666061
0.44755748 0.42352188 0.15194605 4282665546
0.44917768 0.42249706 0.15208004 4282797130
0.44372511 0.42435706 0.15259534 4282666061
0.44470108 0.42305714 0.15258376 4282666061
0.44627777 0.42243138 0.15244234 4282600268
0.43892506 0.42514762 0.15256363 4282797134
0.44049969 0.42398417 0.15320879 4282731086
0.44213444 0.42302945 0.15308753 4282796880
0.44377214 0.42207432 0.15296619 4282927696
0.4367536 0.42509839 0.15283494 4282665548
0.43793458 0.42422584 0.15331879 4282797134
0.43935874 0.42257479 0.15309599 4282797134
0.44014731 0.42199212 0.15341908 4282861903
0.4331345 0.42501637 0.1532871 4282862156
0.43503931 0.42416021 0.15368052 4282796620
0.43606454 0.42280039 0.15329675 4282796621
0.43757811 0.42223418 0.15352926 4282862927
0.42905828 0.42582333 0.15316497 4282993741
0.43023923 0.42495075 0.15364882 4282796619
0.43219984 0.42403483 0.15366916 4282796618
0.43365517 0.42352927 0.15427439 4282862155
0.4346782 0.42216843 0.15389156 4282862155
0.4249185 0.42722842 0.15262982 4282928718
0.42609951 0.42635584 0.15311368 4282731340
0.41729933 0.4306531 0.15105611 4282666318
0.41848031 0.42978051 0.15153997 4282600268
0.42005494 0.42861709 0.15218511 4282665803
0.42162958 0.42745367 0.15283026 4282731596
0.42331341 0.42590314 0.15312196 4282731596
0.42460483 0.42464247 0.15325284 4282600010
0.41092461 0.43260711 0.15037926 4282665548
0.41210562 0.4317345 0.15086311 4282731597
0.41401041 0.43087834 0.15125655 4282534988
0.41601855 0.42963806 0.15129508 4282535245
0.41769847 0.42808908 0.15158604 4282666317
0.41888133 0.42721513 0.15207067 4282665546
0.40566739 0.43428662 0.14977327 4282797393
0.40684837 0.43341404 0.15025713 4282665807
0.40802935 0.43254149 0.15074098 4282731087
0.40969193 0.43126667 0.15063691 4282599758
0.41115972 0.43075657 0.1512439 4282665806
0.4130199 0.42995656 0.15201171 4282600268
0.40270862 0.43481913 0.14972198 4282600268
0.4038896 0.43394655 0.15020585 4282666061
0.40525937 0.43231106 0.14997807 4282665805
0.40053716 0.43476993 0.14999327 4282600266
0.40150729 0.4334271 0.14960361 4282600268
0.40229589 0.43284443 0.14992671 4282666061
0.3976419 0.4347043 0.15035501 4282600264
0.39915302 0.43413901 0.15058716 4282534730
0.40012091 0.43279514 0.15019843 4282600779
0.40163451 0.43222889 0.15043095 4282666059
0.3958641 0.43436423 0.15078759 4282665803
0.39722103 0.43272939 0.15056074 4282534474
0.39145771 0.43486392 0.15091717 4282664778
0.3934547 0.43369949 0.15069915 4282730570
0.39504611 0.4326801 0.15083247 4282731339
0.39046723 0.43394211 0.15167233 4282730571
0.3921462 0.43261439 0.15119477 4282730571
0.38639098 0.4347491 0.1515502 4282665548
0.38757196 0.43387651 0.15203406 4282533962
0.3847551 0.43342981 0.15204148 4282731341
0.38601574 0.43217519 0.15217151 4282599501
0.37869564 0.43547401 0.15188023 4282336583
0.38020676 0.43490869 0.15211236 4282468169
0.38185695 0.43336409 0.15240358 4282270790
0.38311586 0.43210945 0.15253381 4282402376
0.37770516 0.43455222 0.15263538 4282270790
0.37888613 0.43367967 0.15311925 4283126100
0.38061023 0.43175241 0.15305765 4283060306
0.3821238 0.43118617 0.15329017 4282402376
0.37480989 0.4344866 0.15299711 4282270019
0.37599084 0.43361402 0.15348098 4282270277
0.37771034 0.43168667 0.15341997 4282665294
0.37119079 0.43440458 0.15344927 4282598983
0.37313002 0.43335763 0.15366623 4282270788
0.37477544 0.43181175 0.15395887 4282270788
0.37020034 0.43348277 0.15420443 4282402117
0.37184307 0.43193707 0.15449724 4282270788
0.37346649 0.43058962 0.15465286 4282270789
0.36887971 0.43225372 0.1552113 4282336326
0.3705214 0.43070701 0.15550491 4282204997
0.37177068 0.42945021 0.1556377 4282336583
0.36755905 0.43102467 0.15621819 4282336325
0.36919969 0.42947698 0.15651259 4282401605
0.37044793 0.4282192 0.15664618 4282402376
0.36511961 0.43028456 0.15639043 4282336581
0.36630151 0.42941126 0.15687464 4282336581
0.36787871 0.42846125 0.15675636 4282401604
0.36419022 0.42897817 0.15679558 4282402374
0.3653731 0.42810419 0.15728022 4282336581
0.52875042 0.41509545 0.14737445 4282469452
0.5295403 0.41451189 0.14769804 4282599753
0.53072506 0.41363651 0.14818347 4282665545
0.53190976 0.41276115 0.14866887 4282599751
0.52578223 0.41562966 0.14732301 4282731857
0.52696699 0.41475427 0.14780842 4282535248
0.52814037 0.41338012 0.14741857 4282732626
0.51978207 0.41729811 0.14680581 4282534221
0.52057183 0.41671452 0.1471294 4282336842
0.5227176 0.41569591 0.14720175 4282468428
0.52477187 0.41420743 0.14720498 4282665807
0.51687753 0.41723225 0.14716868 4282271819
0.51839352 0.41666514 0.14740157 4282337099
0.5199095 0.41609803 0.14763445 4282402635
0.52107155 0.41472602 0.14724432 4282402635
0.5150941 0.4168911 0.14760265 4282206540
0.51258445 0.4165335 0.14812733 4282403405
0.51413047 0.4148699 0.14790006 4282403664
0.50816393 0.41703478 0.14825733 4282271819
0.50967997 0.41646764 0.14849022 4282337612
0.51009852 0.41507971 0.14819232 4282206026
0.50525945 0.41696894 0.14862022 4282336842
0.50691336 0.41593915 0.14875402 4282337612
0.50813591 0.41513202 0.14898297 4282403405
0.509435 0.41446224 0.14869818 4282271819
0.50434369 0.41581643 0.14871146 4282336585
0.50540304 0.41467211 0.14899044 4282534221
0.50129753 0.41657841 0.14932634 4282467917
0.50298524 0.41561723 0.14920387 4282336331
0.49911919 0.41652903 0.14959851 4282336586
0.50064373 0.41486543 0.14937358 4282402636
0.49621466 0.4164632 0.14996138 4282532938
0.49756733 0.41519347 0.15009207 4282467912
0.49100438 0.41754806 0.14976779 4282731089
0.49291524 0.41668919 0.15016246 4282599502
0.49469408 0.41519639 0.15019882 4282730574
0.49634385 0.41416556 0.15033375 4282796364
0.48731005 0.41806579 0.14980707 4282861905
0.48849472 0.41719046 0.15029247 4282927698
0.49001071 0.41662332 0.15052536 4282796624
0.49175307 0.41506168 0.15081848 4282730831
0.4934347 0.4140996 0.1506972 4282599503
0.48513162 0.41801646 0.15007922 4282796881
0.48631632 0.41714108 0.15056463 4282730832
0.48782054 0.41547847 0.15034123 4282862161
0.47952637 0.41939312 0.14972381 4282862157
0.48159155 0.41814238 0.14976345 4282796365
0.48285067 0.41693518 0.1502693 4282927951
0.48445207 0.41630578 0.15012765 4282796880
0.47583205 0.41991088 0.14976309 4283059536
0.47701681 0.41903546 0.15024851 4282927950
0.47868502 0.41807625 0.15012676 4282862157
0.48035628 0.41711658 0.15000494 4282862157
0.48193845 0.41594759 0.15065318 4282731341
0.47292751 0.41984504 0.15012598 4282928720
0.47446468 0.41907787 0.15049696 4282862927
0.47635436 0.418419 0.15075356 4282731341
0.47784263 0.41675839 0.15053046 4282599755
0.46995929 0.42037922 0.15007454 4282797134
0.47168624 0.41882056 0.15036723 4282862927
0.47301957 0.41755274 0.1504986 4282994513
0.4655388 0.4208805 0.15020454 4282863440
0.46719792 0.41992274 0.15008275 4282797391
0.46925557 0.41867232 0.15012296 4282731597
0.46263427 0.42081466 0.15056743 4282796362
0.46426558 0.41978693 0.15070225 4282928205
0.46634641 0.41860637 0.15048641 4282862925
0.46135953 0.41972107 0.15106533 4282730825
0.46299091 0.41869265 0.15120055 4282796875
0.4586724 0.42042413 0.15127355 4282796360
0.45980081 0.41845804 0.1513042 4282730824
0.45458311 0.42123368 0.15115103 4282928718
0.45576787 0.4203583 0.15163644 4282862925
0.45781448 0.41910809 0.15167773 4282599752
0.45200983 0.4214761 0.15126139 4282797645
0.45319456 0.42060074 0.15174678 4282666059
0.45490819 0.41904226 0.15204082 4282534730
0.44798425 0.42168561 0.1515532 4282665546
0.4495002 0.4211185 0.15178606 4282731337
0.4505502 0.41975445 0.15140255 4282731594
0.4520686 0.41918641 0.15163581 4282666057
0.4465957 0.42105263 0.15214896 4282600012
0.44757676 0.4197484 0.15213993 4282665546
0.44915944 0.41912049 0.15199926 4282665544
0.44335997 0.42067856 0.15276437 4282927698
0.44500142 0.41972065 0.15264462 4282730318
0.44664586 0.4187623 0.1525248 4282796109
0.44118154 0.42062923 0.15303652 4282796110
0.4423663 0.41975382 0.15352194 4282992720
0.43636617 0.4214223 0.15300472 4282862157
0.43790334 0.42065513 0.15337572 4282797134
0.43944055 0.41988799 0.15374671 4282927180
0.44049585 0.4183217 0.15350464 4282927180
0.44201422 0.41775367 0.1537379 4282927180
0.43306673 0.42164823 0.1532058 4282665546
0.43497762 0.4207893 0.1536005 4282796875
0.43628061 0.41952324 0.15373401 4282730826
0.43807322 0.41905504 0.15448058 4282796362
0.43910506 0.41768774 0.15410136 4282730569
0.42772898 0.42393318 0.15218355 4282731341
0.42891374 0.42305782 0.15266895 4282731340
0.43049341 0.42189065 0.15331617 4282665546
0.43230423 0.41994333 0.1532592 4282731339
0.43349087 0.41906658 0.15374538 4282665548
0.42600921 0.42299196 0.15303184 4282665546
0.42770121 0.42143542 0.15332688 4282731339
0.42899957 0.42016965 0.15346061 4282731082
0.415665 0.42787009 0.1507348 4282600525
0.41684973 0.42699474 0.15122022 4282731854
0.41803449 0.42611939 0.15170561 4282665546
0.42005107 0.42487374 0.15174696 4282731595
0.42163193 0.42370567 0.15239468 4282797645
0.42365333 0.42245823 0.15243672 4282731852
0.42483997 0.42158148 0.1529229 4282797132
0.4115757 0.42867965 0.15061228 4282600268
0.41276047 0.42780426 0.15109769 4282600268
0.41465011 0.42714536 0.15135427 4282534475
0.41561854 0.42564732 0.15148261 4282731341
0.41737205 0.42550287 0.15221067 4282927948
0.41916201 0.4235613 0.15215194 4282862155
0.42074418 0.42239231 0.15280019 4282797645
0.40702784 0.430381 0.14991364 4282665550
0.40821257 0.42950562 0.15039903 4282731342
0.40959239 0.4278627 0.15017538 4282599756
0.41117457 0.42669368 0.15082362 4282600012
0.4123612 0.42581692 0.1513098 4282666061
0.40326977 0.43149877 0.14953858 4282731854
0.40445453 0.43062341 0.150024 4282600268
0.40582836 0.42898226 0.14979973 4282666061
0.40036523 0.43143293 0.14990146 4282535243
0.4019635 0.43041083 0.15003595 4282600523
0.40379208 0.43000692 0.15052904 4282666059
0.39906624 0.43041772 0.15014254 4282534988
0.40034181 0.4291591 0.15027374 4282403660
0.39416128 0.43159309 0.15046543 4282599498
0.39615881 0.43035182 0.1505058 4282534219
0.39776438 0.42940193 0.15038426 4282666061
0.39165166 0.43123546 0.15099011 4282598985
0.39325199 0.43028596 0.15086897 4282533449
0.3952508 0.42904374 0.15090978 4282599756
0.38907838 0.43147787 0.15110047 4282598985
0.39026311 0.43060252 0.15158588 4282598985
0.38735861 0.43053669 0.15194876 4282402121
0.38901982 0.42898613 0.15224296 4282467656
0.38445407 0.43047085 0.15231165 4282533962
0.38611776 0.42899272 0.15235028 4282402120
0.38771001 0.42796919 0.15248635 4282336583
0.38161325 0.42980498 0.15308885 4282402376
0.38312921 0.42923784 0.15332174 4282336583
0.38446909 0.42759451 0.15310274 4282336583
0.37903994 0.43004736 0.15319923 4282928719
0.38022467 0.42917204 0.15368463 4282402374
0.38195547 0.42723632 0.15362826 4282204995
0.37653032 0.42968979 0.1537239 4282270790
0.37771511 0.42881438 0.15420932 4282336583
0.37897342 0.42755449 0.15434337 4282139203
0.3736895 0.42902389 0.15450111 4282336583
0.37520549 0.42845678 0.154734 4282270788
0.37646121 0.42719656 0.15486854 4282139202
0.37765002 0.42639235 0.15509914 4281941823
0.37269589 0.42809916 0.15525869 4282402376
0.37388062 0.4272238 0.15574409 4282270790
0.37520579 0.42557722 0.15552895 4282007103
0.37599689 0.42499271 0.15585306 4281875517
0.37137103 0.42686617 0.15626878 4282270790
0.37255579 0.42599082 0.15675418 4282073411
0.36879772 0.42710859 0.15637913 4282401604
0.36998248 0.42623323 0.15686454 4282270790
0.36740917 0.42647564 0.1569749 4282336068
0.36859393 0.42560029 0.1574603 4282270790
0.36951512 0.42424336 0.15708584 4282139204
0.36523077 0.42642626 0.15724707 4282336581
0.36539859 0.42511123 0.15733428 4282270788
0.36733323 0.42419395 0.15735842 4282270788
0.36409235 0.42381927 0.15797481 4282204995
0.36309713 0.42289305 0.15873359 4282270788
0.52971238 0.41171134 0.14719202 4282666831
0.53129709 0.41054046 0.14784129 4282338120
0.52290082 0.41397056 0.14634854 4282402635
0.52369314 0.41338506 0.14667317 4282402635
0.52579904 0.41212806 0.14671272 4282600271
0.52698851 0.41124922 0.14720006 4282600784
0.52871561 0.41078368 0.14795201 4282666831
0.53068668 0.40881747 0.14789084 4282535243
