# .PCD v0.7 - Point Cloud Data file format
VERSION 0.7
FIELDS x y z rgb
SIZE 4 4 4 4
TYPE F F F U
COUNT 1 1 1 1
WIDTH 1094
HEIGHT 1
VIEWPOINT 0 0 0 1 0 0 0
POINTS 1094
DATA ascii
0.43215027 0.69509697 0.15361597 4287797140
0.43166494 0.69707477 0.15358946 4287467146
0.43077579 0.69628078 0.153172 4286809473
0.42944911 0.69523579 0.15286078 4288123534
0.42986041 0.6982975 0.15387839 4287335558
0.42917311 0.69725692 0.1534356 4287532684
0.42836842 0.69596803 0.15303381 4289374884
0.42841673 0.69927567 0.15410955 4288651163
0.42737854 0.69809633 0.15358475 4287664526
0.42627463 0.69717526 0.15322059 4287072645
0.4257105 0.69941473 0.15335295 4287072906
0.42454106 0.69813848 0.15334971 4288059796
0.42426684 0.70039296 0.15358409 4289374891
0.42310011 0.69911486 0.15358043 4288520862
0.42213759 0.70149678 0.15368704 4287270023
0.42140111 0.69996786 0.15322238 4287467660
0.42053419 0.69873917 0.15250666 4287599502
0.4202069 0.70229656 0.1536392 4289308579
0.41950858 0.70109594 0.15308051 4287334789
0.4185051 0.69993442 0.15245309 4287992977
0.41912416 0.70303023 0.15381256 4288649878
0.41813216 0.70229018 0.15297979 4287597706
0.41694629 0.70114422 0.15243185 4288453529
0.41641793 0.70316929 0.15305595 4288387991
0.41528991 0.70226109 0.15256697 4286874753
0.41335076 0.7035529 0.15235713 4290230195
0.41190714 0.70453107 0.15258828 4287532427
0.40999758 0.70503277 0.15359989 4287926928
0.40956059 0.70781565 0.15415391 4287729804
0.40888852 0.70676798 0.15371092 4289176736
0.407756 0.70903838 0.15444285 4288124305
0.4073621 0.70791149 0.15394795 4288057998
0.40608367 0.7097739 0.15506244 4288122503
0.40563324 0.70923257 0.15454015 4291872704
0.40441331 0.71050799 0.1556817 4294044898
0.40396333 0.7099672 0.15515991 4294966514
0.4039658 0.71330118 0.15623964 4293321684
0.40306357 0.71224391 0.15584348 4294901489
0.40216216 0.7111876 0.1554483 4294901749
0.40216127 0.71452391 0.15652858 4294901744
0.40153068 0.71355629 0.15607081 4294901746
0.40072125 0.71216398 0.15567902 4294901751
0.40071759 0.71550208 0.15675972 4292398789
0.40026677 0.71496022 0.15623695 4293056975
0.39873934 0.71519828 0.15718403 4291739321
0.31791374 0.76362103 0.16567162 4293578175
0.31604105 0.76567495 0.16526058 4294901496
0.31197047 0.76595664 0.16543554 4294901755
0.31016928 0.76717705 0.16572393 4294901755
0.30836812 0.76839751 0.16601233 4294901755
0.30692717 0.76937383 0.16624305 4294901755
0.30629638 0.77227765 0.16682084 4294901753
0.30548623 0.77035022 0.16647376 4294901754
0.30485275 0.77325588 0.167052 4294901755
0.30368504 0.77157062 0.16676216 4294901755
0.49945161 0.66239929 0.14853556 4286811015
0.4985193 0.66106796 0.14814782 4287139468
0.49781188 0.6630646 0.14882177 4287337099
0.49707294 0.66204798 0.1483794 4287402893
0.49625522 0.66428649 0.14906216 4287139208
0.49526501 0.66327304 0.14866889 4286942342
0.4946976 0.66550905 0.14930269 4287006341
0.49381861 0.66425306 0.14890046 4287006342
0.49299753 0.66649383 0.14958376 4287928467
0.49237224 0.66523308 0.14913204 4287270537
0.49128309 0.66723776 0.14988039 4287467917
0.49056432 0.66645807 0.14942153 4287402123
0.4895139 0.66842902 0.14984295 4287007365
0.48868892 0.66771889 0.14929418 4286875522
0.4880091 0.66985899 0.14974099 4287665551
0.48727724 0.66883719 0.1492973 4287007622
0.48619777 0.67108637 0.15003102 4287073932
0.48532832 0.66982424 0.14962745 4287139212
0.48474875 0.67206818 0.15026303 4286942857
0.48376927 0.67104733 0.14986807 4286613123
0.48366192 0.67280459 0.15043704 4287797651
0.48217678 0.67211813 0.14980173 4287204230
0.48075694 0.67098111 0.14950165 4288322967
0.480221 0.67343509 0.14979361 4287204226
0.47967213 0.67171609 0.14967534 4287072642
0.47877195 0.67441696 0.15002564 4287007105
0.47786421 0.67294109 0.14996487 4287665291
0.47732285 0.67539883 0.15025765 4288060825
0.47605625 0.67416614 0.15025429 4288060310
0.47551146 0.67662615 0.15054767 4286875263
0.47460994 0.67514616 0.15048587 4286941058
0.47370023 0.67785347 0.15083769 4286941572
0.47316357 0.67612618 0.15071747 4287598988
0.47154817 0.67749244 0.15074626 4287862418
0.46980035 0.67880249 0.15052542 4287335815
0.46805689 0.67746413 0.15004493 4287072386
0.46808988 0.67985702 0.15078911 4287533450
0.46697208 0.67819917 0.15021862 4286940800
0.46612141 0.6808179 0.15106775 4287204487
0.46516412 0.67942417 0.15050811 4287862674
0.46482521 0.68216592 0.15106432 4287401095
0.46313033 0.68037778 0.15053572 4287071365
0.46292362 0.68260396 0.1507716 4286873467
0.46168402 0.6813578 0.1507673 4288321687
0.46111229 0.68383127 0.15106162 4287730314
0.46028873 0.68271255 0.15077333 4287993746
0.45930099 0.68505859 0.15135165 4287138441
0.4584617 0.68378073 0.15094665 4287007626
0.45785189 0.6860404 0.15158367 4286940545
0.45689765 0.6850065 0.15118748 4288191898
0.45604056 0.68726778 0.15187369 4287795855
0.45533267 0.68623292 0.1514284 4287664271
0.45459151 0.68824959 0.1521057 4287136901
0.45350432 0.68730164 0.15160166 4287072392
0.45210141 0.68866116 0.15160863 4287929237
0.45101765 0.6868872 0.15128303 4286613123
0.4506523 0.68964297 0.15184064 4287468689
0.44920975 0.68811226 0.15157247 4287402638
0.44817063 0.68754303 0.15084472 4287072388
0.44920325 0.69062483 0.15207267 4287007372
0.44775745 0.68963444 0.1513415 4286875012
0.44708586 0.68827802 0.15101841 4287072388
0.44612461 0.69100988 0.15137123 4287597961
0.4452779 0.68950307 0.1513079 4288454038
0.44467553 0.69199175 0.15160324 4287138698
0.44346997 0.69072807 0.15159737 4286415230
0.44322646 0.69297361 0.15183526 4286743683
0.44202358 0.69170809 0.15182896 4287072129
0.44141513 0.69420093 0.15212528 4287664273
0.44057724 0.69268811 0.15206054 4289638057
0.43960381 0.69542825 0.15241531 4287269508
0.43815473 0.69641012 0.15264732 4286809730
0.43670565 0.69739199 0.15287934 4287796629
0.43515339 0.69636321 0.15292898 4288257179
0.43489432 0.69861931 0.15316936 4287138182
0.43406862 0.6970982 0.15310267 4286941319
0.43308297 0.69984663 0.15345939 4287334533
0.43226066 0.69832325 0.15339215 4287861904
0.43163389 0.70082843 0.1536914 4289439650
0.4304527 0.69954824 0.15368162 4288387989
0.43054712 0.70156485 0.15386541 4287335301
0.42890161 0.70058459 0.15349902 4287401101
0.42774138 0.6996876 0.1529236 4288125593
0.42746019 0.70171928 0.15350418 4287598482
0.42665663 0.70042259 0.15309729 4286743941
0.42553359 0.70269394 0.15383285 4287730579
0.42484868 0.70164764 0.15338677 4287532942
0.42396334 0.70392323 0.15407422 4288124823
0.42304072 0.70287263 0.15367626 4287467146
0.42217043 0.70511448 0.15371367 4286808704
0.42148784 0.70406628 0.15326701 4288255120
0.4203591 0.7063418 0.15400369 4287664268
0.41940317 0.7049461 0.15326278 4288387477
0.41806978 0.70369416 0.15268394 4289308581
0.41766474 0.70563334 0.15307637 4287532686
0.41651094 0.70473307 0.15250072 4287466892
0.41535845 0.70383352 0.15192592 4287269510
0.41610339 0.70667392 0.15289353 4288519579
0.4151881 0.70562071 0.1524961 4287400585
0.41427371 0.70456851 0.15209961 4288913312
0.41429204 0.70790124 0.15318355 4288387734
0.41361532 0.70685095 0.15273727 4288387736
0.41282734 0.70554852 0.1523312 4288190360
0.41248071 0.70912856 0.15347357 4288059281
0.41193044 0.70782804 0.1530177 4287466889
0.41138098 0.70652854 0.15256278 4287006339
0.41103166 0.71011043 0.15370558 4287664268
0.41057912 0.70956653 0.15318085 4287269510
0.40958259 0.71109229 0.15393761 4289111718
0.40913004 0.7105484 0.15341286 4288256409
0.40767378 0.71158719 0.15494458 4288451731
0.40722209 0.71104431 0.15442082 4288188816
0.40631992 0.71332896 0.1551093 4288320399
0.40577573 0.71202433 0.15465242 4289634975
0.40473679 0.71482611 0.15566082 4291675326
0.40306321 0.71556008 0.15627888 4294966513
0.40297028 0.71812409 0.1567879 4290553502
0.40194005 0.7173115 0.15639685 4291739577
0.31947079 0.76619661 0.16418552 4293383105
0.31729719 0.76766938 0.16453356 4294901496
0.31488338 0.76724428 0.16473511 4294901753
0.31307542 0.76846927 0.16502458 4294901755
0.31162903 0.76944929 0.16525622 4294901755
0.3098211 0.77067435 0.16554564 4294901755
0.3093273 0.77306956 0.16580965 4294901755
0.30837473 0.77165437 0.16577724 4294901755
0.30787826 0.77405143 0.16604167 4294901754
0.30728996 0.77238935 0.16595092 4294901755
0.30606693 0.77527875 0.16633169 4294901755
0.5029071 0.66524738 0.14868157 4287071871
0.50181621 0.66598654 0.14885622 4287204739
0.50100285 0.66400564 0.14847055 4286744706
0.50036168 0.6669721 0.14908911 4287862670
0.49918815 0.66523528 0.14876111 4286678654
0.49890727 0.6679576 0.14932199 4287007364
0.49737343 0.66646487 0.14905167 4287270280
0.49708915 0.66918951 0.1496131 4287007366
0.49592164 0.66744858 0.14928412 4286809474
0.49527103 0.67042142 0.14990421 4287730061
0.49446988 0.66843224 0.14951658 4286809729
0.49381652 0.67140692 0.1501371 4287664265
0.49265513 0.66966188 0.14980714 4287335815
0.49161214 0.66909045 0.14907669 4286415227
0.49236202 0.67239249 0.15036997 4287269509
0.49084044 0.67089146 0.1500977 4287072132
0.49016038 0.67007416 0.14930913 4287466634
0.49054399 0.6736244 0.15066108 4287599244
0.48938867 0.67187518 0.15033016 4287138438
0.48870859 0.67105788 0.14954159 4287994003
0.48797822 0.67338067 0.15010068 4286942339
0.48725682 0.67204154 0.14977403 4286482046
0.48636293 0.67475003 0.15013169 4286810754
0.48544207 0.67327118 0.1500646 4287271561
0.48490843 0.67573553 0.15036458 4287731083
0.4834007 0.67422831 0.1500923 4287993999
0.48272061 0.67341101 0.14930373 4287006848
0.48309031 0.67696744 0.15065567 4287204996
0.48194894 0.67521203 0.15032476 4287270274
0.48126885 0.67439473 0.14953618 4287533446
0.48056191 0.67656595 0.15033287 4287599756
0.47981706 0.67537838 0.14976864 4286941825
0.478728 0.67763811 0.15050684 4287598985
0.47800234 0.67660803 0.15005919 4287204228
0.47716147 0.67886704 0.15074901 4287204483
0.47618765 0.67783761 0.15034977 4287270277
0.47559398 0.68009657 0.15099135 4287731342
0.47473589 0.67882133 0.15058221 4286809984
0.47389159 0.68108261 0.15127258 4287401351
0.47305742 0.67953259 0.15055181 4287533708
0.47219008 0.68206805 0.15155365 4287664522
0.47124267 0.68076217 0.15084238 4287072386
0.47039494 0.68302506 0.15153272 4286613372
0.4695712 0.68209952 0.1509383 4287271047
0.46886441 0.68447244 0.1514349 4286876803
0.46814594 0.68343717 0.15098594 4287731856
0.46704629 0.68570435 0.15172601 4287008643
0.46595731 0.68433243 0.15126027 4287007106
0.46430209 0.68333477 0.15045789 4287202432
0.46559179 0.68668991 0.1519589 4286415484
0.46430808 0.68530786 0.15142462 4288191378
0.46321329 0.68407249 0.15063223 4286939772
0.46413735 0.68767542 0.15219177 4287072130
0.46285543 0.68629217 0.15165721 4288059024
0.46176153 0.68505621 0.15086468 4287862414
0.46231923 0.68890733 0.15248288 4287203971
0.46136492 0.68750185 0.15191592 4287006593
0.46030977 0.68603987 0.15109713 4287533199
0.45935971 0.68823421 0.1519174 4287993231
0.45849502 0.68726951 0.15138771 4286743166
0.45763594 0.68953848 0.15207876 4287861392
0.45668033 0.68849909 0.15167826 4287730063
0.45618281 0.69052309 0.15231141 4287466636
0.45495644 0.68938315 0.15175484 4287400587
0.45452058 0.69164562 0.15244871 4287730065
0.453486 0.69048548 0.15181237 4287138442
0.45259324 0.69293642 0.15224189 4288783523
0.4517608 0.69164693 0.15183093 4287271056
0.45113879 0.69392192 0.15247478 4287072900
0.45018926 0.69287843 0.15207335 4287006340
0.44865093 0.69180948 0.15146811 4287796111
0.44968429 0.69490749 0.15270767 4286874750
0.44873613 0.69386303 0.15230602 4287861649
0.44756207 0.6925472 0.15164246 4288322455
0.44822979 0.69589299 0.15294054 4287598726
0.44707248 0.69498616 0.1524433 4287598477
0.44611031 0.69353092 0.15187491 4287401872
0.44513965 0.69627947 0.15223648 4287203721
0.44429561 0.6947605 0.15216547 4287335822
0.44368517 0.69726503 0.15246937 4289309352
0.44248086 0.69599015 0.15245605 4287861391
0.44186705 0.69849694 0.15276048 4286808959
0.4410291 0.69697386 0.15268849 4287927694
0.44004896 0.69972885 0.15305157 4287862160
0.43957731 0.69795752 0.15292095 4287336073
0.43859446 0.70071435 0.15328446 4289046438
0.43776259 0.69918716 0.1532115 4287271054
0.43713996 0.70169985 0.15351735 4286940543
0.4359479 0.70041674 0.15350206 4288124820
0.4353219 0.70293176 0.15380844 4288716956
0.4344961 0.70140046 0.15373452 4287531910
0.43350378 0.70416367 0.15409955 4287795603
0.43268141 0.70263004 0.15402508 4287400581
0.4320493 0.70514923 0.15433244 4287006085
0.43086666 0.70385969 0.15431565 4287730063
0.42995992 0.70276994 0.15326422 4286874499
0.43095842 0.70588839 0.15450712 4287598475
0.42941487 0.7048434 0.15454811 4287071618
0.42850813 0.70375359 0.15349667 4288124823
0.42792982 0.70638984 0.15432392 4287795085
0.42705637 0.70473731 0.15372913 4288783010
0.42627725 0.70777971 0.15435751 4287336077
0.42524162 0.70596689 0.15401968 4286940293
0.42383569 0.70564145 0.15334734 4287795858
0.42482278 0.70876527 0.15459038 4287203974
0.4234269 0.70719653 0.15431026 4288651162
0.42274687 0.70637918 0.15352167 4287795597
0.4233683 0.70975077 0.15482327 4287927696
0.42245984 0.70865899 0.15376988 4288387990
0.42129508 0.70736289 0.15375413 4287993233
0.42064175 0.7098909 0.15406099 4287334789
0.4194361 0.70812207 0.15333986 4287532683
0.41812024 0.70695788 0.15246755 4287203974
0.41918725 0.71087641 0.15429386 4288584600
0.41754699 0.70914513 0.15350695 4287861133
0.41666847 0.70794153 0.15270001 4289045920
0.41591847 0.71042216 0.15378442 4288386963
0.41485375 0.70917118 0.15299056 4287991948
0.41446581 0.71140647 0.15401702 4287401095
0.41340196 0.71015489 0.15322302 4287729546
0.41296101 0.71296102 0.15379223 4287861385
0.41195017 0.71113855 0.15345547 4289440417
0.41098872 0.71402991 0.15434091 4287862671
0.41013545 0.71236819 0.15374604 4287730317
0.40938142 0.7148515 0.1548311 4287335046
0.40832075 0.71359777 0.1540366 4288979358
0.40792874 0.71583581 0.1550637 4288519321
0.40718773 0.71900702 0.15621518 4288452497
0.40640011 0.71673745 0.15542459 4288124047
0.40573326 0.71999252 0.15644805 4289566090
0.40478137 0.71782184 0.15588538 4289963935
0.40351081 0.7194131 0.15660165 4290158744
0.32074016 0.76819164 0.16346309 4293911249
0.31855845 0.76966995 0.16381241 4294901496
0.31613538 0.7692439 0.16401041 4294901753
0.31468362 0.77022761 0.16424286 4294901755
0.31459317 0.76943678 0.16365904 4294901755
0.31351054 0.77240098 0.16455737 4294901755
0.31169352 0.77363211 0.16484828 4294901755
0.31055877 0.77509034 0.16509327 4294901755
0.30910426 0.77607584 0.16532616 4294901754
0.30710647 0.77690303 0.16611773 4294901755
0.50577188 0.66796106 0.14896722 4287138176
0.50477004 0.66693944 0.14856462 4287137663
0.50431192 0.66895026 0.14920098 4286810755
0.50356615 0.66792393 0.14874963 4286744190
0.50167412 0.66819364 0.14909904 4287073411
0.49985263 0.66942781 0.14939068 4287007364
0.49803117 0.67066205 0.14968234 4286809986
0.49657393 0.6716494 0.14991565 4287730318
0.49511674 0.67263675 0.15014897 4287466887
0.49329525 0.67387092 0.15044062 4287137923
0.49208584 0.67552066 0.14995524 4288126356
0.49026096 0.67675716 0.15024742 4286745217
0.48933399 0.67527217 0.15017408 4287140230
0.4884361 0.67799366 0.15053962 4287534220
0.4878768 0.67625952 0.15040739 4286876803
0.48697621 0.67898285 0.15077338 4288191124
0.48605528 0.67749369 0.15069903 4287467656
0.4842338 0.67872792 0.15099069 4287271306
0.48300755 0.68038666 0.15050633 4287073154
0.48186648 0.67862141 0.15016866 4287204997
0.48118269 0.68162316 0.15079851 4287204738
0.48004499 0.67985564 0.1504603 4287796362
0.4797228 0.68261236 0.15103227 4287074182
0.4782235 0.68108988 0.15075195 4286678910
0.47826287 0.68360156 0.15126602 4286679426
0.47676629 0.68207723 0.15098527 4287402377
0.47716793 0.68434346 0.15144134 4286941572
0.4753091 0.68306458 0.15121859 4288585369
0.47358394 0.68437111 0.15138105 4287203459
0.47207645 0.68397206 0.15083538 4287466887
0.47195396 0.68575066 0.15141459 4288454555
0.47098351 0.68471259 0.15101038 4287205257
0.4704954 0.68673897 0.15164812 4288125589
0.46952635 0.68569994 0.15124369 4288060308
0.46892044 0.68797421 0.15189211 4286941309
0.46806911 0.68668735 0.15147701 4287073923
0.46696547 0.6889627 0.15222152 4288191121
0.46624762 0.68792152 0.15176865 4286743932
0.4653905 0.69019794 0.15246549 4287862160
0.46442616 0.6891557 0.1520603 4288125332
0.46393195 0.69118625 0.15269904 4287072643
0.46296898 0.69014311 0.15229362 4287139204
0.46245557 0.6923843 0.15244329 4288059280
0.46144462 0.69132727 0.15188669 4287006593
0.4606016 0.69003665 0.1514716 4288322454
0.46033421 0.69360745 0.15263253 4288059025
0.45949247 0.69231445 0.15221609 4288058770
0.45878017 0.69127083 0.15176325 4287664014
0.45887432 0.69459665 0.15286629 4287401351
0.45791605 0.69355035 0.15246007 4287072386
0.45695862 0.692505 0.15205489 4286743165
0.45777938 0.69533855 0.1530416 4287664520
0.45636591 0.69437748 0.15223603 4288125074
0.45527393 0.69321895 0.15202437 4288914337
0.45444974 0.69545257 0.15207058 4287533707
0.45358917 0.69393283 0.15199386 4287401870
0.45262489 0.69668901 0.15236278 4287269762
0.45176771 0.69516706 0.1522855 4287862160
0.45116499 0.69767827 0.15259653 4288322706
0.44994622 0.69640124 0.15257715 4287730314
0.45007002 0.69842011 0.15277185 4287598984
0.44839305 0.69744104 0.15239635 4287664519
0.4472146 0.69654161 0.15181345 4287203721
0.44694853 0.69858086 0.1524041 4287401098
0.44612169 0.69728214 0.15198843 4287071878
0.44500175 0.69956535 0.15273331 4287006340
0.44430017 0.69851637 0.15228008 4287861905
0.44342268 0.70080262 0.15297739 4287795854
0.44247872 0.69975054 0.15257172 4286874752
0.44196409 0.70179087 0.15321094 4287203715
0.4410215 0.70073789 0.15280505 4286941058
0.44001937 0.70227218 0.15356605 4287335303
0.43956429 0.70172524 0.15303837 4288849059
0.43819788 0.70350641 0.15385769 4287269766
0.43774283 0.70295948 0.15333001 4287137922
0.43637642 0.70474058 0.15414934 4286282874
0.43592134 0.70419365 0.15362166 4287993235
0.43491921 0.70572793 0.15438266 4288256155
0.43446416 0.705181 0.15385498 4289572271
0.43326515 0.70712072 0.15441778 4287137924
0.4328098 0.70657349 0.15388978 4286545789
0.43177643 0.70867336 0.15419678 4287335046
0.43084329 0.707614 0.15378934 4288913563
0.43031651 0.70966256 0.15443054 4288519069
0.42938477 0.70860231 0.15402289 4288387479
0.42885661 0.71065176 0.15466429 4287203722
0.42792621 0.70959055 0.15425642 4286941319
0.42703173 0.71188825 0.15495649 4287861133
0.42634332 0.71083009 0.15450089 4288519832
0.42557183 0.71287745 0.15519024 4289176735
0.42453015 0.71167743 0.15464976 4288190866
0.42276183 0.71097213 0.15422735 4287927438
0.42283511 0.71301812 0.15442511 4287861904
0.42166892 0.71171266 0.15440235 4287598732
0.42137522 0.71400732 0.15465887 4287664011
0.42021173 0.71270001 0.15463565 4287664270
0.4189373 0.71185303 0.15363863 4289374886
0.42028028 0.71474922 0.15483418 4287466887
0.41870728 0.71425962 0.15441453 4287795854
0.41784441 0.71259356 0.15381363 4287861390
0.4170416 0.71565837 0.15445027 4287006594
0.4160229 0.71382773 0.15410528 4287598473
0.4155817 0.71664757 0.15468402 4288125328
0.41420141 0.71506196 0.15439692 4288388241
0.41412178 0.71763676 0.15491776 4287730317
0.41274422 0.71604931 0.15463024 4287796110
0.41229689 0.71887326 0.15520996 4287335563
0.41128704 0.71703666 0.15486357 4287401353
0.41047204 0.72010976 0.15550216 4288915109
0.40946552 0.7182709 0.15515521 4288323225
0.40901211 0.72109896 0.1557359 4287794053
0.40755221 0.72208816 0.15596965 4289631368
0.31762001 0.77152318 0.1635554 4294901753
0.31716496 0.77097625 0.16302772 4294901753
0.31616282 0.77251053 0.16378872 4294901755
0.31570774 0.7719636 0.16326104 4294901755
0.31435013 0.7753861 0.16397367 4294901755
0.31325522 0.77612799 0.16414899 4294901755
0.31165683 0.776815 0.1647578 4294901755
0.31006053 0.77750057 0.16536632 4294901754
0.30823901 0.77873474 0.16565798 4294901755
0.50819075 0.6701389 0.14873603 4286875262
0.50650036 0.66915923 0.14877653 4286677886
0.50576401 0.67135322 0.14882265 4286942599
0.50509453 0.67066848 0.14855117 4287205771
0.50393236 0.67259431 0.14911592 4287797138
0.50329661 0.67131835 0.14865026 4287271050
0.50266165 0.67004341 0.14818563 4286547326
0.50246704 0.6735872 0.14935055 4286808957
0.50157791 0.67231357 0.14893277 4287270022
0.50083339 0.67128217 0.14847837 4287072644
0.50100172 0.67458004 0.14958517 4287073416
0.50000298 0.67355001 0.14917763 4287139209
0.49900517 0.672521 0.14877109 4286678403
0.49917009 0.67582113 0.14987844 4287995031
0.49842718 0.6747871 0.14942268 4287468174
0.49754253 0.67351198 0.14900528 4287007367
0.49733844 0.67706221 0.15017171 4286874751
0.49670878 0.67578214 0.14970508 4287533193
0.49607995 0.67450303 0.14923947 4287138434
0.49587309 0.67805511 0.15040635 4288190614
0.49499124 0.67677653 0.14998738 4287203974
0.49425167 0.67574185 0.1495322 4287006851
0.49440777 0.67904794 0.15064095 4288454041
0.49341515 0.6780138 0.15023243 4287138951
0.49242339 0.67698061 0.14982493 4287468686
0.49294248 0.68004084 0.15087557 4287006852
0.49195123 0.67900574 0.15046683 4287665294
0.49096078 0.67797166 0.15005912 4286876547
0.49184346 0.68078548 0.15105154 4286744193
0.49043187 0.67975295 0.1507223 4286678143
0.4894982 0.67896271 0.15029331 4286941315
0.48852864 0.68103373 0.15060011 4286743936
0.48767394 0.68040007 0.15009573 4287270537
0.48689863 0.6824159 0.15063551 4287533452
0.48591295 0.68137866 0.150227 4286678400
0.48543334 0.6834088 0.15087013 4286743422
0.48444903 0.6823706 0.15046139 4287533450
0.48360163 0.68464988 0.15116341 4287139464
0.48287028 0.68360931 0.15070668 4287928978
0.48063138 0.68411219 0.15111025 4286745475
0.47938952 0.68578392 0.15063006 4287732371
0.47792414 0.68677682 0.15086468 4287730318
0.47665536 0.68551856 0.1508427 4287467146
0.47609249 0.68801785 0.15115796 4287466885
0.47519279 0.68650961 0.15107688 4287532423
0.47426084 0.68925893 0.15145123 4288454037
0.4733645 0.68774843 0.15136962 4287269509
0.47279555 0.69025183 0.15168585 4288453011
0.47153625 0.6889872 0.15166235 4287927180
0.47133023 0.69124466 0.15192047 4287400831
0.47007367 0.68997824 0.15189654 4287269758
0.4694986 0.69248575 0.15221374 4287926920
0.46861103 0.69096923 0.15213072 4287335040
0.46766695 0.69372684 0.15250702 4287993488
0.46714839 0.69196028 0.15236491 4287664266
0.46656793 0.69447148 0.15268299 4287598730
0.46532017 0.6931991 0.15265764 4287006849
0.46404991 0.69488764 0.15218033 4287598726
0.46280679 0.69361448 0.15215592 4289243551
0.46258458 0.69588053 0.15241495 4287730827
0.46134415 0.69460547 0.15239011 4287598987
0.4598825 0.69614613 0.15216926 4287730572
0.45773286 0.69703597 0.15232573 4288125327
0.45677409 0.6959852 0.1519163 4286941052
0.45626894 0.69802791 0.15256013 4287467397
0.45531151 0.69697618 0.15215048 4287731081
0.45468497 0.69926947 0.15280582 4287203974
0.45384887 0.69796723 0.15238467 4286940801
0.45305288 0.69992632 0.15308838 4287335816
0.45238623 0.69895828 0.15261886 4286743165
0.45111284 0.70099461 0.1526372 4287467143
0.44986364 0.69963741 0.15229943 4286743932
0.44948921 0.70217353 0.15270005 4287006336
0.44804457 0.70061243 0.15240987 4287664524
0.44802392 0.70316643 0.15293467 4287071874
0.44658199 0.70160347 0.15264405 4288980387
0.44527701 0.70330757 0.15216675 4287269510
0.44344538 0.70454866 0.15245998 4288716954
0.44187468 0.7035054 0.15249361 4286808959
0.44198006 0.70554155 0.1526946 4288387991
0.44077775 0.70424867 0.15266924 4287664267
0.44051474 0.70653439 0.15292923 4286940543
0.43931511 0.70523971 0.15290344 4287861903
0.43868306 0.70777547 0.15322255 4287796109
0.4378525 0.7062307 0.15313762 4286743425
0.43685144 0.70901656 0.15351577 4288059536
0.43602425 0.70746952 0.15343034 4287466637
0.43538612 0.71000946 0.15375039 4287401351
0.43419597 0.70870829 0.15372308 4287795854
0.4339208 0.71100229 0.15398501 4288256657
0.43273336 0.70969933 0.15395726 4287203460
0.43208915 0.71224338 0.15427834 4288519324
0.43127075 0.71069038 0.15419145 4287400587
0.43062383 0.71323627 0.15451291 4287794833
0.4294425 0.71192914 0.15448418 4288059029
0.42761424 0.71316797 0.15477692 4287334532
0.4260402 0.71422082 0.15459871 4287729803
0.42487243 0.71330887 0.15401037 4287401353
0.42457816 0.7153722 0.15460916 4287269767
0.42377546 0.71405214 0.15418601 4287532939
0.42263323 0.71635491 0.1549376 4288453272
0.42194724 0.7152909 0.15447874 4289111457
0.42105421 0.71757036 0.15453543 4287598474
0.42012942 0.71650058 0.15412331 4287795854
0.41958892 0.7185632 0.15477005 4287138179
0.41866544 0.71749252 0.1543577 4287730316
0.41775727 0.71980429 0.15506332 4289177251
0.41707459 0.71873772 0.15460372 4287993233
0.41592562 0.72104537 0.15535659 4287072133
0.41513243 0.71971917 0.15493216 4288124566
0.4144603 0.72203827 0.1555912 4287664525
0.41354159 0.72096437 0.15517811 4287270284
0.41299498 0.7230311 0.15582582 4288781979
0.41207761 0.72195631 0.15541257 4287139210
0.41116333 0.72427219 0.15611911 4288976785
0.41048551 0.72320235 0.15565872 4289109655
0.40905827 0.72316575 0.15593968 4289698191
0.32011726 0.7722705 0.16234446 4294901753
0.31865466 0.77326155 0.16257864 4294901753
0.31719205 0.77425259 0.16281283 4294901755
0.3156012 0.77741259 0.16326755 4294901755
0.31572941 0.77524364 0.16304702 4294901755
0.31450221 0.77815729 0.16344352 4294901755
0.31418091 0.78052503 0.16500469 4294901755
0.31335485 0.77939713 0.16458289 4294901755
0.31252965 0.77827013 0.16416211 4294901755
0.31271559 0.78151792 0.1652393 4294901754
0.3118909 0.78038901 0.16481735 4294901754
0.31106704 0.77926117 0.1643963 4294901754
0.3112807 0.78277683 0.16567035 4294901754
0.31042692 0.78138095 0.16505174 4294901755
0.30960444 0.78025222 0.16463049 4294901755
0.31038007 0.78353041 0.16591521 4294901244
0.27983469 0.8115375 0.17593902 4280033828
0.27914828 0.81071258 0.17514309 4280427814
0.27873573 0.81228215 0.17611499 4280033574
0.27804932 0.81145722 0.17531906 4280296230
0.27727041 0.81327504 0.17634961 4280033830
0.27647847 0.8121168 0.17591733 4280099364
0.27568737 0.81095958 0.17548607 4280296487
0.27617142 0.81401968 0.17652558 4280100134
0.27483761 0.81300098 0.17570473 4280099621
0.2745904 0.81170285 0.17566171 4280165414
0.27356207 0.81363761 0.17543365 4280231207
0.51038861 0.67205101 0.14824831 4287598982
0.50928551 0.6727984 0.14842494 4287007876
0.50792807 0.67129791 0.14820488 4286678656
0.50781482 0.67379493 0.14866042 4286745220
0.50649059 0.6725592 0.14863671 4286547329
0.50597638 0.6750406 0.14895478 4286810757
0.50502253 0.67355388 0.14887176 4287271052
0.50413799 0.67628628 0.14924914 4286811008
0.50355452 0.67454857 0.14910682 4286811009
0.50266719 0.67728281 0.14948463 4286941058
0.50171947 0.67579198 0.14940064 4287073413
0.5011965 0.67827934 0.14972012 4287007109
0.49988446 0.67703533 0.14969446 4288126104
0.49935806 0.67952502 0.15001447 4287467660
0.49841642 0.67803007 0.14992951 4287006853
0.49694839 0.67902476 0.15016456 4286941315
0.49511337 0.68026817 0.15045838 4288322454
0.49358341 0.68172383 0.15036665 4286546814
0.49177122 0.68269098 0.15034744 4287730830
0.49089342 0.68140423 0.14992405 4287270536
0.49004808 0.68368852 0.15063021 4287862416
0.48942533 0.68239897 0.15015911 4287336329
0.48832592 0.68468541 0.15091281 4286809472
0.48759031 0.68364233 0.15045293 4287335818
0.4866887 0.68568146 0.15117949 4287270792
0.48575532 0.68488568 0.15074673 4286876291
0.48504293 0.68664831 0.15112855 4287337361
0.48458406 0.68609679 0.15059645 4286942603
0.48350248 0.68811041 0.15103789 4286679430
0.4827702 0.68706471 0.15057729 4286679687
0.48190236 0.68577313 0.15015365 4286022271
0.48166403 0.68935609 0.15133226 4287335815
0.48079732 0.68806213 0.15090735 4286941316
0.48006734 0.68701655 0.15044746 4288060055
0.48019332 0.69035262 0.15156774 4287467656
0.47921237 0.68930572 0.15115404 4287533192
0.47823226 0.6882599 0.15074128 4287532936
0.47872257 0.69134915 0.15180323 4287270536
0.47774294 0.69030136 0.15138932 4287007363
0.47676423 0.68925464 0.15097633 4286941569
0.47688413 0.69259483 0.15209758 4287204485
0.4761568 0.69154584 0.15163621 4287073155
0.47529626 0.69024932 0.15121138 4288849822
0.47504574 0.6938405 0.15239194 4288256913
0.47443652 0.69254178 0.15191872 4288059793
0.47382823 0.69124401 0.15144645 4287533708
0.47357497 0.69483703 0.15262744 4287401347
0.47271723 0.69353706 0.1522011 4286940796
0.47199321 0.69248742 0.15174025 4287533190
0.47061661 0.69428176 0.15256567 4288783257
0.47015813 0.69373077 0.15203407 4289046429
0.4691582 0.69582552 0.15234801 4287993488
0.46869919 0.69527382 0.15181576 4287598730
0.46750882 0.69722092 0.15238647 4287270020
0.46683189 0.69625187 0.15191308 4287598985
0.46640575 0.69796836 0.1525631 4288849049
0.46518305 0.6966635 0.15220743 4287533190
0.46337083 0.69788319 0.15217634 4288585878
0.46203887 0.69707817 0.15182158 4287072898
0.46217799 0.69910657 0.15202779 4287138179
0.46093786 0.69782418 0.15199786 4287072386
0.46107495 0.69985396 0.15220439 4287269510
0.45946983 0.69881892 0.15223293 4288322453
0.45781603 0.7002154 0.15227082 4287270021
0.45634148 0.70176643 0.15205312 4287072390
0.45487076 0.70276296 0.1522886 4288585629
0.45327702 0.70172256 0.15231697 4287466889
0.45303231 0.70400864 0.15258296 4286940802
0.452176 0.70246857 0.15249327 4287269510
0.45119393 0.70525432 0.15287732 4287861388
0.45034102 0.70371199 0.15278709 4288584598
0.44903424 0.70542288 0.15231393 4287730060
0.44745123 0.70437753 0.15234226 4287795854
0.4475635 0.70641941 0.15254943 4287203972
0.44635025 0.7051236 0.15251856 4287401352
0.44572511 0.70766509 0.15284377 4287269249
0.44488221 0.70611829 0.15275361 4286743675
0.44388667 0.70891076 0.15313815 4287993485
0.44341421 0.70711297 0.15298866 4288058509
0.44241592 0.70990729 0.15337363 4287729291
0.44157916 0.70835638 0.15328248 4287400580
0.44094518 0.71090382 0.15360911 4287466374
0.43974414 0.70959973 0.1535763 4287269251
0.43947446 0.71190035 0.15384459 4287730061
0.43827611 0.71059448 0.15381135 4287731087
0.43800372 0.71289694 0.15408009 4288651162
0.43680808 0.71158916 0.1540464 4287401865
0.43514034 0.7129935 0.15408543 4287993487
0.43363795 0.71456027 0.15386993 4288387736
0.4321672 0.7155568 0.15410542 4287269252
0.43038604 0.71421731 0.15386465 4287860624
0.43032879 0.71680248 0.15439978 4288519832
0.42928505 0.71496338 0.15404095 4288124816
0.42849034 0.71804816 0.15469414 4287663751
0.42745 0.71620673 0.15433475 4288059026
0.4270196 0.71904469 0.15492962 4287597958
0.42561495 0.71745014 0.15462857 4287401096
0.42554888 0.72004122 0.15516512 4289045403
0.42414695 0.71844482 0.15486363 4287663496
0.42279187 0.7201829 0.15439431 4288388246
0.42199123 0.71861303 0.15430129 4287598474
0.42095345 0.72142857 0.15468867 4287466632
0.42015618 0.71985644 0.15459511 4287400838
0.41948271 0.7224251 0.15492415 4287532170
0.41832119 0.72109979 0.15488891 4289374631
0.41837966 0.72317249 0.15510078 4288191121
0.41708773 0.72234428 0.15474245 4287532684
0.41580588 0.72491646 0.15551287 4287466630
0.41548461 0.72383934 0.15465513 4287664268
0.41433513 0.72591299 0.15574837 4288123535
0.41364619 0.72508502 0.15494949 4288847771
0.41217545 0.72608155 0.15518498 4289831065
0.41061398 0.72629994 0.1554765 4290087557
0.32315445 0.7738837 0.16064985 4294901750
0.3216837 0.77488023 0.16088533 4294901753
0.32021296 0.77587682 0.16112082 4294901753
0.31859839 0.77657354 0.16173144 4294901755
0.31795681 0.77929735 0.16323118 4294901755
0.31720525 0.77790183 0.16249479 4294901755
0.31736186 0.78212464 0.16460793 4294901755
0.31659633 0.78068388 0.16385941 4294901755
0.31547147 0.77958745 0.16349165 4294901755
0.31621239 0.78419834 0.16570115 4294967291
0.31574991 0.78281564 0.16521533 4294901754
0.31492034 0.7816841 0.1647899 4294901755
0.31510931 0.78494573 0.16587777 4294703095
0.31413999 0.78350532 0.16582236 4294901499
0.31345233 0.78267884 0.16502495 4294901754
0.31363857 0.78594226 0.16611326 4287991446
0.31267199 0.7845 0.16605741 4294440438
0.31235132 0.78342485 0.16520125 4294901755
0.31271878 0.78829193 0.16747278 4283257431
0.31202981 0.78746396 0.1666739 4283848799
0.31090572 0.78631377 0.16614248 4286150016
0.30918604 0.78513879 0.16540556 4294702842
0.31032944 0.78818446 0.1666431 4283783005
0.30913702 0.78729641 0.16627415 4283913824
0.30821928 0.78619343 0.16520996 4290623423
0.30816975 0.78835303 0.16607971 4283980641
0.30725119 0.78724903 0.16501455 4285886844
0.28362405 0.8127535 0.17546494 4279771169
0.28270546 0.8116495 0.17439978 4280099621
0.2815572 0.81026953 0.17306833 4282201918
0.28376085 0.81568205 0.17756446 4279903271
0.28307191 0.81485403 0.17676559 4280034341
0.28246588 0.81333429 0.17582265 4279771168
0.28149277 0.81206441 0.17493935 4280033827
0.28041783 0.81090635 0.17336616 4281150255
0.2832087 0.81778258 0.1788651 4280298031
0.28251976 0.81695455 0.17806624 4280166444
0.28152829 0.81562662 0.17724153 4280100651
0.28046432 0.81407773 0.17665938 4279902501
0.27977666 0.81325126 0.17586198 4279967780
0.28045169 0.81792426 0.1780943 4280232236
0.27965412 0.81675988 0.17765599 4280232236
0.27889958 0.81555408 0.17678145 4280099880
0.27830863 0.814246 0.17609704 4280099367
0.27934864 0.81867164 0.17827092 4280298029
0.27865967 0.81784368 0.17747205 4280298283
0.27741942 0.81681377 0.17635737 4280231720
0.27633902 0.81583619 0.17575063 4280100134
0.2751897 0.81463605 0.17538641 4280165414
0.27604073 0.81746018 0.17637609 4280297513
0.27524775 0.81629628 0.17593955 4280231720
0.27371505 0.81559622 0.1746486 4280231207
0.51268506 0.67477524 0.14836213 4287467657
0.51172012 0.67328656 0.14827421 4287730566
0.51120895 0.67577547 0.14859849 4286679168
0.51024663 0.67428493 0.14851013 4286678910
0.50973278 0.67677563 0.14883484 4286876291
0.50840485 0.67553288 0.14880504 4287666580
0.5078876 0.6780259 0.14913028 4287139719
0.50693142 0.67653126 0.14904095 4287534993
0.50604236 0.67927617 0.14942573 4286744703
0.505458 0.67752963 0.14927688 4286613629
0.50433576 0.67999935 0.14939481 4287532937
0.50435287 0.67827845 0.14945382 4287796109
0.50292885 0.68073606 0.14946799 4287927953
0.50092244 0.68144578 0.14933299 4287007365
0.49907726 0.68269604 0.14962842 4287928465
0.49813721 0.68119282 0.14953817 4286678143
0.49723208 0.68394631 0.14992386 4287731086
0.49666378 0.68219119 0.1497741 4287072643
0.49575591 0.68494648 0.15016022 4287138440
0.49482197 0.6834392 0.15006895 4287270281
0.49427974 0.6859467 0.15039657 4287270023
0.49298015 0.68468714 0.15036391 4286743679
0.49243456 0.68719697 0.15069202 4287598984
0.49150673 0.68568552 0.15059982 4287335557
0.49058932 0.68844724 0.15098746 4287073150
0.48986515 0.687078 0.15063871 4287138689
0.48911321 0.68944746 0.15122381 4287073417
0.48842171 0.68861639 0.15042201 4286810245
0.48713291 0.68735188 0.15038928 4287665811
0.48800606 0.69019759 0.15140109 4287073677
0.4869456 0.68961662 0.15065835 4287007883
0.48565948 0.68835026 0.1506252 4287073932
0.48546943 0.69061679 0.15089472 4286875523
0.48418602 0.68934864 0.15086113 4286481280
0.48362425 0.69186705 0.15119015 4287467402
0.48271254 0.69034702 0.15109704 4288059281
0.48177907 0.69311732 0.15148561 4287466890
0.48087078 0.69159502 0.15139194 4287730063
0.4803029 0.69411755 0.15172195 4287006336
0.47902897 0.69284296 0.15168685 4287664266
0.47882673 0.69511777 0.15195832 4287664780
0.47755554 0.69384134 0.15192276 4288389529
0.47698155 0.69636804 0.15225375 4288124046
0.47608209 0.69483972 0.15215869 4287927949
0.47550538 0.6973682 0.15249011 4287136896
0.47443101 0.69623786 0.15219854 4287532166
0.47257149 0.69703478 0.15208705 4287269766
0.47184652 0.69598001 0.15162238 4287730060
0.47097868 0.69828433 0.15233549 4287994261
0.47000471 0.69722795 0.15191729 4287204746
0.46964386 0.69918382 0.15233536 4287533194
0.4688125 0.69845331 0.15177037 4287006593
0.4677102 0.7004841 0.15221734 4286940543
0.46699429 0.69967788 0.15174073 4288585623
0.4657692 0.69836831 0.15138099 4288059276
0.46586502 0.7017343 0.15251279 4287927696
0.46501511 0.70042396 0.15208158 4286875007
0.46429572 0.69936669 0.1516169 4287335557
0.46438885 0.70273453 0.15274914 4287138180
0.46355897 0.7017889 0.15213872 4287466889
0.4627296 0.70084375 0.15152875 4287861649
0.46291274 0.70373476 0.1529855 4286808707
0.46222124 0.70290369 0.15218368 4288979875
0.46102503 0.70156634 0.15149805 4287532684
0.46014553 0.70387697 0.15221186 4286809472
0.45942953 0.70281708 0.15174644 4287862160
0.45830035 0.70512724 0.15250731 4287994003
0.45770642 0.70381492 0.15202941 4287138182
0.45682418 0.70612741 0.15274365 4287731858
0.45598429 0.70481217 0.15231217 4287007111
0.45534807 0.70712763 0.15298 4286809985
0.4543885 0.70606315 0.15256067 4287467659
0.45387191 0.70812786 0.15321636 4287599242
0.45291364 0.70706242 0.1527968 4287006848
0.45202672 0.70937812 0.15351181 4287731082
0.45133522 0.70854706 0.15270999 4287336068
0.45025271 0.70671993 0.15234731 4288716953
0.44925952 0.70952028 0.15273817 4287006854
0.44841096 0.70796788 0.15264216 4286677886
0.44778341 0.71052051 0.15297452 4286939519
0.44656914 0.70921582 0.15293711 4288584854
0.44630724 0.71152073 0.15321086 4288256405
0.44509566 0.7102142 0.15317303 4287927438
0.44416228 0.71275753 0.15340222 4287203713
0.4434582 0.71140271 0.15323821 4287137409
0.44238636 0.71374422 0.15353449 4288519831
0.44169489 0.71291316 0.15273267 4288387990
0.44091022 0.71474445 0.15377083 4288124819
0.44021875 0.71391338 0.15296903 4287664268
0.43943405 0.71574467 0.1540072 4286940801
0.43829724 0.71465141 0.15330134 4287466887
0.43800411 0.71656919 0.15413477 4288519835
0.43678397 0.71539474 0.15355602 4287730317
0.43588221 0.71771806 0.15427172 4287730577
0.43518397 0.7166481 0.15380479 4287730832
0.434037 0.71896833 0.15456717 4287795849
0.43322217 0.71763897 0.15413369 4287532937
0.43256086 0.71996856 0.15480351 4289571746
0.43162218 0.71889234 0.15438245 4287400836
0.43108469 0.72096878 0.15503988 4287729542
0.43014738 0.71989155 0.15461864 4288650645
0.42923951 0.72221905 0.15533531 4288189838
0.42838505 0.72122329 0.15478705 4287795081
0.42739433 0.72346932 0.15563075 4288322710
0.42670286 0.72263825 0.15482895 4287335818
0.42492884 0.72128445 0.15458034 4289045919
0.4249962 0.72336143 0.15479803 4287140236
0.42382374 0.7220332 0.15475728 4286678657
0.42352006 0.72436166 0.15503439 4287007108
0.42235032 0.72303158 0.15499321 4287730318
0.42167485 0.72561193 0.15532982 4288125075
0.42082465 0.72461408 0.15478143 4288717212
0.42019871 0.72661215 0.15556619 4287203717
0.41913819 0.72603112 0.15482345 4287401091
0.41774642 0.7244215 0.15451588 4287927947
0.41766205 0.72703135 0.15505981 4288716438
0.41650832 0.72911263 0.15615708 4289501328
0.41618589 0.72803158 0.15529616 4289306519
0.41540122 0.72986281 0.15633434 4287326801
0.41470975 0.72903174 0.15553252 4288312935
0.41332608 0.72741663 0.15522364 4290092180
0.41222098 0.72816539 0.15540059 4286997330
0.32437119 0.77558333 0.16096535 4294901750
0.32322672 0.77705789 0.16121878 4294901753
0.32175237 0.77805686 0.16145484 4294901753
0.32125482 0.78109175 0.16258748 4294901755
0.32027802 0.77905589 0.16169091 4294901755
0.32106966 0.78294992 0.16383383 4294901755
0.32014769 0.78184187 0.16276474 4294901755
0.31916761 0.78040636 0.16270937 4294901755
0.32083794 0.78613931 0.16600017 4287465106
0.32014644 0.7853083 0.16519836 4293781998
0.31912881 0.78399682 0.16437687 4294901499
0.31875274 0.78198463 0.16368666 4294901755
0.31915146 0.78751242 0.16674747 4283980390
0.31808668 0.78609753 0.16604888 4287859863
0.317294 0.78484678 0.16523591 4294900477
0.31760454 0.78835779 0.16716829 4283652448
0.31654134 0.78694224 0.16646969 4284242532
0.31585112 0.78611273 0.16566935 4289241260
0.31705436 0.79130214 0.16843103 4283913821
0.31622246 0.7896353 0.16750284 4283388761
0.31506789 0.78794062 0.16670561 4283586142
0.3143777 0.7871111 0.16590527 4284243305
0.31557819 0.79230237 0.16866739 4283388758
0.31456324 0.7909869 0.16784398 4283191635
0.31345615 0.78946507 0.16726729 4283126099
0.31373301 0.79355264 0.16896284 4283256914
0.3127192 0.79223639 0.16813925 4283059791
0.31138429 0.79043657 0.16729541 4283060304
0.31041789 0.7895059 0.16633688 4283389014
0.31262589 0.79430276 0.1691401 4282994513
0.3112618 0.79315877 0.16815861 4282862927
0.31004629 0.79174751 0.16716261 4282994513
0.30912516 0.79064047 0.16609451 4283323222
0.30770192 0.78947246 0.16545606 4283849311
0.30678162 0.78836644 0.16438894 4284505704
0.30939776 0.79389095 0.16783191 4282797134
0.30870625 0.79305989 0.1670301 4282797134
0.30778429 0.79195184 0.16596101 4283257684
0.30686232 0.79084378 0.16489193 4283718235
0.30567652 0.78911519 0.16456588 4284111973
0.30792159 0.79489112 0.16806827 4282797132
0.30696258 0.7941547 0.16724846 4282862925
0.30593908 0.7932021 0.16625646 4283257683
0.30501711 0.79209405 0.16518737 4283718235
0.30357012 0.79021823 0.1646754 4284244326
0.30231601 0.78923023 0.16358586 4284900975
0.30386341 0.79417533 0.16628464 4283455062
0.30317193 0.79334432 0.16548282 4283784028
0.30176288 0.79133469 0.16488886 4284179044
0.30056641 0.79012746 0.1636636 4284573547
0.30238727 0.79517555 0.16652098 4283586647
0.30169576 0.79434448 0.16571918 4283784027
0.30037433 0.79254216 0.16487779 4284178786
0.29913905 0.79095048 0.16379093 4284573544
0.29821876 0.78984445 0.16272379 4284967793
0.20719345 0.68076825 0.056138076 4284137398
0.20650199 0.67993718 0.055336278 4282502076
0.3009111 0.79617578 0.16675735 4283718232
0.30021963 0.79534471 0.16595553 4283981148
0.29898337 0.79375052 0.16486655 4284244320
0.29766563 0.79194885 0.16402684 4284507748
0.29674533 0.79084283 0.16295972 4284771180
0.20571728 0.68176848 0.056374442 4284987569
0.20479532 0.68066037 0.055305351 4281780147
0.29874346 0.79634494 0.16619188 4284046428
0.297591 0.79495984 0.16485552 4284310113
0.29643854 0.79357475 0.16351917 4284441957
0.29551655 0.7924667 0.16245009 4284705130
0.29422554 0.79160869 0.16144009 4285622649
0.20424114 0.68276864 0.056610793 4284318848
0.20331918 0.68166059 0.055541705 4284334774
0.29726732 0.7973451 0.16642824 4283849820
0.2958957 0.79621685 0.16520302 4284112992
0.29459336 0.79482502 0.16381462 4284244578
0.29367137 0.79371697 0.16274554 4286215296
0.29274938 0.79260892 0.16167645 4292728797
0.28753129 0.8113063 0.17315812 4279834905
0.28660932 0.81019825 0.17208904 4284307807
0.28545684 0.80881315 0.17075267 4287794838
0.28845203 0.81588078 0.17666082 4279968548
0.28776053 0.81504971 0.175859 4279705376
0.28683856 0.81394166 0.17478992 4279705118
0.28609192 0.81262815 0.17363194 4279835933
0.28513315 0.81119847 0.17232539 4282202177
0.2839807 0.80981338 0.17098904 4286478467
0.28789783 0.81798905 0.17796625 4280363565
0.28714928 0.81699032 0.17734416 4280166185
0.28617084 0.81571531 0.17645559 4279837475
0.28513637 0.81427509 0.17574875 4279836962
0.28458446 0.8129195 0.17462265 4279705376
0.28343406 0.81153697 0.17328875 4280756012
0.28228372 0.81015444 0.17195484 4283978330
0.28645232 0.81925726 0.17840049 4280363824
0.28561705 0.8178221 0.17776012 4280298029
0.28478268 0.81638849 0.17712106 4279969319
0.28403127 0.8150239 0.17592569 4279902755
0.28517604 0.82026649 0.17870623 4280363824
0.28448454 0.81943542 0.17790443 4280363824
0.28343236 0.8213613 0.17892459 4280429104
0.28221953 0.82029337 0.1782967 4280298030
0.28112966 0.81915194 0.17790838 4280298029
0.28162417 0.82223994 0.17897075 4280363824
0.28053734 0.82125723 0.1783583 4280298029
0.27945182 0.82027519 0.1777468 4280298029
0.27813751 0.81901741 0.17686938 4280298283
0.27744731 0.81818789 0.17606904 4280297513
0.27922606 0.82213205 0.17813803 4280363822
0.27842802 0.82096207 0.1776956 4280363822
0.27740076 0.8195166 0.17698734 4280298029
0.2762163 0.8189975 0.17561799 4280297514
0.27492723 0.81814057 0.17460936 4280231720
0.51596117 0.67728966 0.14863774 4288060305
0.51484996 0.67804253 0.14881566 4287730312
0.51425189 0.67629492 0.14866178 4287337097
0.51336843 0.67904645 0.14905287 4286809210
0.51240325 0.67754745 0.14895776 4286876031
0.51188684 0.68005031 0.1492901 4288519315
0.51055473 0.67879999 0.14925374 4287533704
0.5104053 0.68105417 0.14952733 4288124813
0.50907582 0.67980206 0.14949054 4287271300
0.50892371 0.6820581 0.14976454 4286677883
0.50743747 0.68119502 0.14953081 4286810753
0.50600731 0.68272978 0.14931563 4287138950
0.5040862 0.68331462 0.14954057 4287205518
0.50274527 0.6819216 0.14898048 4287336588
0.5026055 0.68431795 0.14977765 4286942344
0.50126642 0.68292361 0.14921728 4286876036
0.50112486 0.68532121 0.15001474 4287007881
0.49978751 0.68392569 0.14945406 4288191638
0.49947563 0.68661791 0.15029947 4287468172
0.49830869 0.6849277 0.14969085 4287928465
0.49745721 0.68760151 0.15057836 4287007876
0.49646014 0.68618029 0.14998683 4286875519
0.49594253 0.68883264 0.15084451 4287073926
0.49461153 0.68743283 0.15028283 4287995028
0.49446186 0.68983591 0.15108158 4287533193
0.49313268 0.6884349 0.15051961 4287664778
0.49295002 0.69050187 0.15128231 4287269763
0.49165377 0.68943691 0.1507564 4287006589
0.49046692 0.69139117 0.15133326 4288125591
0.49000481 0.69083577 0.1507974 4288125591
0.48901606 0.69293839 0.15112031 4287205770
0.48802406 0.69188464 0.15069832 4287402637
0.48753449 0.69394225 0.15135753 4286547324
0.48654386 0.6928876 0.15093534 4286941569
0.48605284 0.69494611 0.15159476 4288849056
0.48506364 0.69389057 0.15117234 4287862417
0.48420092 0.69620097 0.15189128 4288059538
0.48346624 0.69514424 0.15142214 4287796109
0.48234895 0.69745582 0.15218781 4287203716
0.48173282 0.69614744 0.15170565 4287466887
0.48086739 0.69845974 0.15242502 4289243557
0.48000032 0.69715005 0.15198906 4287335046
0.47788221 0.6979003 0.15235198 4288056971
0.4769789 0.69935536 0.15182646 4287400069
0.47534087 0.69832027 0.15184467 4287466630
0.47512692 0.70061022 0.15212299 4286941058
0.47423175 0.69907176 0.15202226 4288519834
0.47364536 0.70161408 0.15236022 4287403145
0.47238314 0.70032436 0.15231825 4287336842
0.47109938 0.70203483 0.15185198 4287665293
0.46984184 0.70074433 0.15181094 4288586395
0.46961781 0.70303869 0.15208921 4289243812
0.46836296 0.70174634 0.15204774 4287598987
0.46776584 0.70429355 0.15238579 4287138691
0.46688411 0.70274842 0.15228452 4288190869
0.46522 0.70415539 0.15232646 4287401607
0.46327731 0.7054618 0.15220989 4287598222
0.46189356 0.70439392 0.15186465 4288519581
0.46175146 0.70621127 0.15246485 4288124821
0.46078444 0.70514548 0.15204224 4286940547
0.4602713 0.70721424 0.15270185 4287203969
0.45930558 0.70614749 0.15227902 4287401348
0.45866936 0.70847034 0.15295194 4287204229
0.4578267 0.70714957 0.15251581 4288585882
0.45669246 0.70946854 0.1532813 4287335817
0.45597816 0.7084021 0.1528118 4286546556
0.45509052 0.71072459 0.15353137 4287006339
0.45412955 0.70965469 0.15310779 4287796365
0.45364538 0.71168733 0.15312016 4287928458
0.4531827 0.71113127 0.15258366 4287796872
0.45179346 0.71294218 0.15341669 4287269762
0.45108241 0.71187317 0.15294644 4286809469
0.45024812 0.71054864 0.15251032 4287270280
0.44994149 0.71419704 0.15371323 4287862158
0.44935498 0.7128734 0.15322967 4288716699
0.44876927 0.71155071 0.15274711 4286874240
0.44845992 0.7152009 0.15395044 4288520086
0.44762841 0.71387291 0.15351275 4287861900
0.44692072 0.7128033 0.15304309 4287664266
0.44697836 0.71620482 0.15418766 4287203972
0.44602478 0.71512979 0.15376288 4287401607
0.44507211 0.71405584 0.15333907 4287270277
0.44549677 0.71720868 0.15442489 4288190867
0.44454458 0.71613276 0.15399988 4288190867
0.44359326 0.71505785 0.15357585 4287006336
0.4421618 0.71709514 0.15392347 4288059798
0.44211441 0.71605992 0.15381265 4287204231
0.44063616 0.71832824 0.15367667 4287401098
0.43915454 0.7193321 0.1539139 4287400069
0.43795541 0.71800995 0.15386909 4288915110
0.43767297 0.72033596 0.15415113 4288124816
0.43647653 0.71901202 0.15410589 4287796369
0.43619141 0.72133982 0.15438834 4287729286
0.43499771 0.7200141 0.15434268 4287269249
0.43433943 0.72259468 0.15468492 4287532164
0.43351883 0.72101611 0.15457946 4289045402
0.43248749 0.72384953 0.1549814 4288453779
0.43167025 0.72226864 0.15487544 4288058251
0.43100592 0.72485346 0.15521863 4287597958
0.42982167 0.72352123 0.15517144 4287729543
0.42989475 0.72560632 0.15539654 4287269510
0.42858624 0.72477347 0.15502971 4289572777
0.42674789 0.72575498 0.15501235 4287467916
0.42594028 0.72441518 0.15457396 4288653218
0.42478266 0.7267468 0.155341 4288190611
