# .PCD v0.7 - Point Cloud Data file format
VERSION 0.7
FIELDS x y z rgb
SIZE 4 4 4 4
TYPE F F F U
COUNT 1 1 1 1
WIDTH 1095
HEIGHT 1
VIEWPOINT 0 0 0 1 0 0 0
POINTS 1095
DATA ascii
0.37740245 0.88383305 0.15704516 4282402635
0.3775377 0.88196826 0.15659969 4282666063
0.37780654 0.87961859 0.15632246 4282402893
0.37781996 0.87750417 0.15655991 4282403150
0.37804395 0.8755464 0.15632893 4282599244
0.37539947 0.8875308 0.15751438 4282797133
0.37562391 0.88556904 0.1572829 4282731854
0.37584841 0.88360727 0.15705144 4282468680
0.37607285 0.88164544 0.15681998 4282732109
0.3762973 0.87968367 0.15658852 4282403659
0.37609437 0.87742919 0.15671557 4282534732
0.37623525 0.87554133 0.15684894 4282665546
0.376504 0.87353557 0.15672484 4282861898
0.37693179 0.8717255 0.15676126 4283057994
0.37721953 0.86935222 0.15690553 4283255116
0.37744352 0.86739451 0.15667455 4282665803
0.37766749 0.86543673 0.15644357 4282600268
0.37789148 0.86347902 0.15621258 4282993741
0.37594119 0.87092406 0.15737057 4283320137
0.3760474 0.8691473 0.15711224 4282926408
0.37624237 0.8670432 0.15731615 4282533962
0.37617421 0.86521357 0.15696134 4282600269
0.37667984 0.86323541 0.15691221 4282796877
0.37634516 0.8611781 0.15669562 4282666060
0.37676039 0.85924757 0.156565 4282731596
0.37706706 0.85728484 0.15678918 4282534730
0.377119 0.85549074 0.15670826 4282534475
0.37717098 0.8536967 0.15662731 4282337094
0.37468988 0.8668772 0.15769781 4282467915
0.37491438 0.86491543 0.15746635 4282600012
0.37513882 0.8629536 0.15723489 4282337096
0.37536326 0.86099184 0.15700343 4282731856
0.37540278 0.85885638 0.15692616 4282600523
0.37559506 0.85700065 0.15724999 4282403656
0.37567532 0.85500818 0.15717845 4282337862
0.37563235 0.85305452 0.15726908 4282205763
0.37615302 0.85187376 0.15745817 4282073920
0.37423721 0.85472047 0.15783565 4282140736
0.37423974 0.85255021 0.15778923 4282140227
0.3750903 0.85044229 0.15833521 4282205507
0.37462613 0.84913927 0.15870444 4282402887
0.37330699 0.85210901 0.15857562 4282139972
0.37338993 0.85029817 0.15912509 4282271557
0.37301695 0.84855086 0.15918842 4282271301
0.37339851 0.84646899 0.1596968 4282139714
0.37327844 0.84483862 0.15976593 4282139715
0.3759968 0.82375932 0.15701741 4281938479
0.37603059 0.8226586 0.15663755 4286146673
0.37625358 0.82098395 0.15542741 4290230198
0.37642649 0.81875253 0.15567248 4290493624
0.37660253 0.8168537 0.15570262 4290428344
0.37682679 0.8148939 0.15547143 4290165429
0.37695187 0.8127318 0.15597782 4290297015
0.37717587 0.81077409 0.15574682 4290362808
0.37739983 0.80881631 0.15551585 4290560187
0.37168962 0.84798336 0.15987067 4282205254
0.37214348 0.84590703 0.16042697 4282205510
0.3723107 0.84436357 0.16058148 4282139460
0.37226051 0.84301561 0.16059677 4282073924
0.37453496 0.82384163 0.15782762 4281544747
0.37474924 0.82267725 0.15718292 4284502618
0.3753233 0.81837249 0.1561674 4290559417
0.37550285 0.81680304 0.15598223 4290428344
0.37572733 0.81484127 0.15575077 4290428601
0.37635332 0.81260341 0.15648562 4290362808
0.37607688 0.81071734 0.15602566 4290428601
0.37630105 0.8087576 0.15579444 4290362808
0.37602535 0.80686545 0.15533377 4290428601
0.37624979 0.80490363 0.15510231 4290625980
0.37651914 0.80254948 0.15482455 4290691259
0.3771435 0.80033708 0.15556134 4290756794
0.37732267 0.7987709 0.15537655 4290559415
0.3775467 0.79681313 0.15514557 4290296245
0.37777069 0.79485542 0.15491459 4290427061
0.37794986 0.79328924 0.1547298 4293190367
0.37063652 0.84590828 0.16072632 4282271303
0.37054613 0.84401298 0.16076472 4282073411
0.37113559 0.84197789 0.16120625 4281942080
0.37110162 0.84026504 0.16120028 4281941823
0.37100238 0.83793187 0.16156587 4282271044
0.37303448 0.82553077 0.15957975 4282072894
0.37310067 0.82440603 0.1592813 4282335294
0.37629282 0.79647112 0.15489347 4290230452
0.37651727 0.79450929 0.15466201 4290559160
0.37673068 0.79233718 0.15496141 4294967287
0.37674913 0.79090458 0.15537649 4294901752
0.37660214 0.78898859 0.1557913 4294901753
0.36933091 0.84120637 0.16174373 4282073409
0.36951047 0.83963692 0.16155855 4282073409
0.3699421 0.83751184 0.16180429 4282271300
0.37032852 0.83578151 0.1620966 4282140484
0.37050772 0.83421534 0.16191182 4282206279
0.3713589 0.82677597 0.16103408 4281942337
0.37149328 0.82560134 0.1608955 4281547578
0.37162769 0.82442671 0.1607569 4281547577
0.37516674 0.79019976 0.15572572 4294901751
0.37574914 0.78840441 0.15650682 4294901753
0.36840066 0.83859485 0.16248371 4282073409
0.36853534 0.83741778 0.16234483 4282205250
0.36834857 0.83559752 0.16246694 4282467652
0.3690899 0.83346087 0.16294119 4282599495
0.36868155 0.83141667 0.16341199 4282598983
0.36890554 0.82945895 0.16318101 4282598985
0.36971298 0.82699597 0.16244215 4283125584
0.36978954 0.82543111 0.1616877 4281809464
0.3745364 0.78765255 0.15621126 4294901753
0.37413099 0.78598112 0.15685143 4294901753
0.37424341 0.78382069 0.15704006 4294901753
0.37462541 0.78214604 0.15733732 4294770681
0.37807488 0.75199693 0.15378018 4289244335
0.36705014 0.83428532 0.1635474 4282664262
0.36688492 0.83304387 0.16366296 4282796617
0.36723766 0.83110809 0.16407372 4282599238
0.36768925 0.82919765 0.16388428 4282533448
0.36774424 0.82702225 0.16339137 4282401860
0.36773786 0.82558906 0.1627834 4281941052
0.37306556 0.78170925 0.15734421 4294770681
0.37369707 0.77953994 0.15807578 4294770681
0.37339598 0.77836931 0.15787053 4294770681
0.37620574 0.75761336 0.15548877 4292599252
0.37638494 0.75604719 0.15530398 4290165170
0.37660894 0.75408942 0.155073 4289770418
0.37683293 0.7521317 0.15484202 4289112491
0.37705693 0.75017399 0.15461104 4289244076
0.37728092 0.74821627 0.15438005 4289244076
0.37750494 0.7462585 0.15414906 4289113002
0.37772891 0.74430078 0.15391809 4289113256
0.37738729 0.74236554 0.15329361 4289178535
0.37761161 0.74040508 0.15306231 4289178534
0.3778359 0.73844469 0.152831 4289046693
0.37806019 0.73648423 0.15259971 4288848547
0.37828454 0.73452377 0.15236844 4288848547
0.37843454 0.73226219 0.15208474 4288914853
0.37937462 0.7304529 0.15223195 4288915876
0.37956563 0.7282474 0.15202403 4289046694
0.37949035 0.72622544 0.15204695 4291348675
0.36560988 0.83076042 0.16470367 4282468934
0.36583433 0.82879865 0.16447221 4282468422
0.365969 0.82762158 0.16433333 4282731592
0.37219596 0.77700418 0.15842783 4294770681
0.37234938 0.77523929 0.15913726 4294770681
0.37248376 0.77406466 0.15899867 4294770681
0.3739621 0.76114362 0.15747418 4294770681
0.37444058 0.75964165 0.15703548 4294770681
0.37466455 0.75768393 0.15680452 4293257184
0.37461841 0.75583148 0.15592976 4290098608
0.3748427 0.75387102 0.15569846 4289638576
0.375067 0.75191057 0.15546715 4289178539
0.37529132 0.74995017 0.15523586 4289047211
0.37551561 0.74798971 0.15500455 4289113003
0.3757399 0.74602926 0.15477327 4289310382
0.37596419 0.7440688 0.15454194 4289178794
0.37575528 0.74208736 0.15424158 4288981414
0.37597972 0.7401256 0.15401012 4289244585
0.37620416 0.73816377 0.15377866 4289309866
0.37642863 0.736202 0.1535472 4289112231
0.37665311 0.73424017 0.15331574 4288914339
0.37692243 0.73188603 0.15303798 4289045925
0.37757915 0.72995365 0.15287659 4289046182
0.3778035 0.72799325 0.15264533 4289243558
0.37829322 0.72596866 0.15306258 4291348672
0.37812832 0.72472984 0.1531779 4294967285
0.37153837 0.7731542 0.15934819 4294770681
0.37102586 0.77112925 0.15930574 4294770681
0.37126374 0.76937538 0.15919225 4294770681
0.37174892 0.7670874 0.15948288 4294770681
0.3714622 0.7651332 0.15856087 4294770681
0.37192306 0.76328748 0.15838052 4294770681
0.37214735 0.76132709 0.15814923 4294770681
0.37283546 0.75955051 0.15708806 4294770681
0.3730599 0.75758868 0.1568566 4293388513
0.37323949 0.75601929 0.15667142 4290361261
0.37651652 0.72737712 0.15329207 4289835436
0.37669611 0.72580767 0.1531069 4291808966
0.37676498 0.72380084 0.15394598 4294901749
0.3769007 0.72205955 0.15417027 4294901753
0.38079813 0.68799502 0.15015116 4286610046
0.38097733 0.68642879 0.14996639 4286610304
0.38135096 0.6845032 0.14960843 4286478975
0.38142529 0.68251336 0.14950442 4286282366
0.37050977 0.76816118 0.15990433 4294770681
0.3706443 0.76698536 0.1597656 4294770681
0.37031779 0.76544225 0.15935534 4294770681
0.37616777 0.72310579 0.15481666 4294901751
0.37557635 0.72157484 0.15528975 4294901753
0.37528422 0.72010815 0.15550892 4294901753
0.37873369 0.68995911 0.15195179 4287860877
0.37949261 0.68801582 0.15126489 4286742658
0.37958264 0.68617868 0.15049349 4286479742
0.37987247 0.68421745 0.15042526 4286545535
0.38009661 0.68225837 0.15019412 4286414461
0.37995574 0.68023527 0.15005389 4286217595
0.3804217 0.67788535 0.15026578 4286217340
0.38064569 0.67592764 0.1500348 4286282619
0.38086969 0.67396986 0.14980382 4286216825
0.38109368 0.67201215 0.14957283 4286216825
0.38114566 0.67021811 0.14949191 4286282876
0.38124239 0.66803247 0.14936477 4286217596
0.3814216 0.6664663 0.14918 4286348665
0.37390056 0.7211647 0.15618469 4294901753
0.37438637 0.71991557 0.15627065 4294901753
0.37740216 0.6908769 0.15310602 4290033064
0.37783584 0.68976647 0.15271352 4287860620
0.37753868 0.68775374 0.15219559 4287006340
0.37788627 0.68586415 0.15127644 4286743169
0.37811074 0.68390232 0.15104499 4286677631
0.37833521 0.68194056 0.15081352 4286414970
0.37855965 0.67997873 0.15058205 4286349179
0.3787584 0.67780447 0.15093148 4286414973
0.3787435 0.67587864 0.15067013 4286414971
0.3792069 0.67388439 0.15046896 4286546043
0.3791922 0.67195708 0.15020743 4286480250
0.37973663 0.6698401 0.15019281 4286611582
0.37977114 0.66791493 0.15005368 4286545792
0.38003522 0.66588902 0.14985752 4286480769
0.38014737 0.66393727 0.14977688 4286480770
0.38067243 0.66229403 0.14973366 4286875528
0.38161319 0.65407157 0.14876354 4294901753
0.38188198 0.65172231 0.14848636 4294901753
0.38206115 0.65015608 0.14830157 4294901753
0.37267569 0.720595 0.15741473 4294901753
0.37288997 0.71959454 0.1575402 4294901753
0.37583125 0.6910432 0.15418619 4291480768
0.37620512 0.68945223 0.15365955 4288123020
0.37598991 0.68766826 0.15293045 4287138182
0.37728459 0.67769527 0.15162277 4286480766
0.37750906 0.67573351 0.15139131 4286349435
0.3777335 0.67377168 0.15115985 4286546814
0.37795797 0.67180991 0.15092839 4286612607
0.37818241 0.66984814 0.15069693 4286546303
0.37827936 0.66765797 0.15056953 4286612099
0.37837631 0.66546786 0.15044214 4286612356
0.37894759 0.66347969 0.15044013 4286678662
0.37938797 0.66163325 0.15037732 4287007627
0.37967813 0.6596812 0.15030918 4288519072
0.37992415 0.65772516 0.15013245 4294704114
0.38019207 0.65577251 0.15001015 4294901752
0.38041607 0.65381479 0.14977917 4294901753
0.38064006 0.65185702 0.14954819 4294901753
0.38086408 0.6498993 0.14931719 4294901753
0.37160325 0.72012085 0.15864822 4294901753
0.3709999 0.71827036 0.15846778 4294901753
0.37085724 0.71683449 0.15856013 4294901753
0.37359276 0.69292539 0.1557392 4294770681
0.37434876 0.69109792 0.15483811 4292598997
0.37473828 0.68920875 0.15402928 4287925639
0.37487292 0.68803167 0.1538904 4287269510
0.37762561 0.66128695 0.15099695 4287270030
0.37785009 0.65932512 0.15076548 4289177001
0.37795883 0.6572237 0.15062985 4294901752
0.37826353 0.65537053 0.15120839 4294901752
0.37891966 0.65349376 0.15104869 4294901753
0.37914369 0.65153605 0.15081772 4294901753
0.37949491 0.6498062 0.15048288 4294901753
0.36966181 0.71746492 0.15893525 4294901753
0.37002569 0.71605396 0.1592533 4294901753
0.36999339 0.71454495 0.15938145 4294901753
0.37006018 0.71216786 0.15980177 4294901753
0.37028417 0.71021014 0.15957077 4294901753
0.37050813 0.70825243 0.15933979 4294901753
0.37073213 0.70629472 0.1591088 4294901753
0.37095615 0.70433694 0.15887782 4294901753
0.37118012 0.70237923 0.15864684 4294836217
0.37140411 0.70042151 0.15841585 4294770681
0.37135395 0.69848943 0.15754293 4294770681
0.372118 0.69642419 0.1570683 4294770681
0.37253782 0.69468707 0.15689382 4294770681
0.37248993 0.69274634 0.15601882 4294770681
0.37666479 0.65625697 0.15171362 4294901753
0.37649956 0.65501553 0.15182918 4294901753
0.37737873 0.65316683 0.15221007 4294901753
0.37764725 0.65121502 0.15208727 4294901753
0.37778163 0.65004039 0.15194869 4294901753
0.38049814 0.62093759 0.14903796 4287071110
0.38067734 0.61937141 0.14885317 4286743428
0.38090134 0.61741364 0.14862218 4286678145
0.3811253 0.61545593 0.1483912 4286349181
0.3813493 0.61349821 0.14816022 4286283389
0.38157332 0.61154044 0.14792924 4286809733
0.38179728 0.60958272 0.14769825 4287138698
0.38202128 0.60762501 0.14746727 4287072905
0.38224527 0.60566729 0.14723629 4286875526
0.38272658 0.60360426 0.14678371 4287007112
0.38299254 0.601816 0.14652041 4286743939
0.38312694 0.60064137 0.14638183 4286678402
0.36879078 0.71165025 0.15955932 4294901753
0.36897033 0.7100808 0.15937415 4294901753
0.36919478 0.70811903 0.15914269 4294901753
0.36941925 0.70615721 0.15891123 4294901753
0.36964369 0.70419544 0.15867977 4294901753
0.36977839 0.70301837 0.15854089 4294901753
0.37531075 0.65265012 0.1527947 4294901753
0.37615085 0.65089405 0.15335681 4294901753
0.37628525 0.64971942 0.15321822 4294901753
0.37910834 0.62271899 0.14999667 4287532175
0.37898144 0.62117004 0.14977278 4287006087
0.37930328 0.61946452 0.14958866 4286874758
0.37943983 0.61747724 0.14913963 4286743429
0.37989295 0.61527985 0.14910993 4286545792
0.37987819 0.61333215 0.14884803 4286677377
0.3799381 0.61153442 0.14800918 4286941319
0.38016257 0.60957265 0.14777772 4287007882
0.38078937 0.60744482 0.14818549 4286876295
0.38077495 0.60549426 0.14792326 4286613380
0.38123757 0.60352737 0.14772329 4286547586
0.38122335 0.60157531 0.14746089 4286612609
0.38158956 0.59948188 0.14723101 4286678400
0.3818137 0.5975228 0.14699987 4286612607
0.3823778 0.5964691 0.14693549 4286744193
0.37438399 0.6505329 0.1539799 4294901754
0.37487844 0.6486153 0.15439537 4294901754
0.37475836 0.64698493 0.15446448 4294901755
0.37641588 0.63249773 0.15275522 4294770683
0.37659505 0.63093156 0.15257044 4294770683
0.37668556 0.62893832 0.15201439 4294770683
0.37710547 0.62674659 0.15117346 4294770682
0.37720299 0.62492383 0.15094358 4294112495
0.37747934 0.62347883 0.15078792 4287664526
0.37987512 0.59865731 0.14780001 4286677630
0.38005468 0.59708786 0.14761484 4286611837
0.38088372 0.59532654 0.1478942 4286743680
0.38106629 0.5934599 0.14799246 4287138181
0.38103008 0.59216845 0.14799696 4287335302
0.37304977 0.65025562 0.1546739 4294901755
0.37267444 0.64816517 0.15495132 4294901753
0.37325406 0.64634907 0.15520857 4294901753
0.37383002 0.64437884 0.15520296 4294901754
0.37405398 0.64242113 0.15497197 4294901754
0.37370729 0.64034498 0.15434895 4294901753
0.37393159 0.63838458 0.15411764 4294901753
0.37446773 0.63681322 0.15397888 4294901754
0.37524924 0.6346544 0.15379412 4294901755
0.37506989 0.63259953 0.15259075 4294770683
0.37529433 0.63063771 0.15235929 4294770683
0.375429 0.62946063 0.15222041 4294770683
0.37919986 0.59650248 0.14833185 4286677630
0.37889096 0.59459859 0.1485564 4286809729
0.3791354 0.59290236 0.14875142 4287270279
0.37956133 0.59128606 0.14879337 4290690999
0.3798025 0.58949816 0.14898933 4294901751
0.37167007 0.6458559 0.15602353 4294901753
0.37205994 0.6440087 0.1558286 4294901753
0.37228423 0.6420483 0.1555973 4294901753
0.37207273 0.63999635 0.15529765 4294901753
0.3776195 0.59241158 0.14959602 4287730060
0.37811378 0.59057868 0.14962995 4293519841
0.37844187 0.58886492 0.14987385 4294901753
0.37848526 0.58761102 0.15007409 4294901753
0.37054458 0.64529639 0.15670905 4294901753
0.37067923 0.64411932 0.15657017 4294901753
0.37094858 0.64176518 0.15629241 4294901753
0.37664977 0.59193558 0.15041327 4288518292
0.37650537 0.58997506 0.15049641 4294243566
0.37652048 0.58830726 0.15066849 4294901753
0.37688228 0.58674353 0.15089761 4294901753
0.37725765 0.58494067 0.15106645 4294901753
0.37511969 0.58919543 0.15166213 4294901751
0.37525436 0.58801836 0.15152325 4294901753
0.37567654 0.58591568 0.15168358 4294901753
0.37589598 0.58430558 0.15195179 4294901753
0.37568593 0.58259779 0.15235892 4294901753
0.37432408 0.5854069 0.15226324 4294901753
0.37417737 0.5835945 0.15267995 4294901753
0.37429515 0.58195525 0.15303892 4294901753
0.37475759 0.5799917 0.15309738 4294901753
0.37274915 0.58305907 0.15355839 4294901753
0.37292871 0.58148968 0.15337321 4294901753
0.37385976 0.57979912 0.15385911 4294901753
0.37364843 0.57770675 0.15355843 4294901753
0.37394217 0.57563329 0.15370376 4294901753
0.3741715 0.56903476 0.15337352 4294901753
0.37496418 0.56746644 0.15266553 4294901753
0.37495267 0.56572163 0.15226412 4294901753
0.37512195 0.56394339 0.15245904 4294901753
0.37502265 0.56159538 0.15249579 4294836218
0.37515706 0.56042075 0.15235719 4294639353
0.37196791 0.57645971 0.1540899 4294901753
0.37201363 0.57499468 0.15434958 4294901753
0.37249219 0.57330185 0.15462983 4294901753
0.37265697 0.56901658 0.15378843 4294901753
0.3728115 0.56747532 0.15318711 4294901753
0.37322482 0.56547368 0.15279371 4294901753
0.37359798 0.5632301 0.15318076 4294836217
0.37354591 0.56138319 0.15318748 4294704890
0.37403393 0.55982679 0.15303998 4290229946
0.37770867 0.53007907 0.14956178 4281679421
0.3775 0.52795231 0.1492582 4281481785
0.37786585 0.52574217 0.14901057 4281547321
0.37785035 0.52376133 0.14874864 4281481527
0.37831405 0.52182466 0.14854836 4281284661
0.37887344 0.51989889 0.14836067 4281219379
0.37900782 0.5187242 0.14822207 4281153329
0.37030318 0.57489663 0.15547763 4294836218
0.37096944 0.5729956 0.15552777 4294836217
0.37146881 0.57092816 0.1553883 4294836217
0.37097651 0.56901127 0.15478325 4294836218
0.371456 0.56750613 0.15434363 4294901753
0.37199467 0.56279784 0.15378812 4294901753
0.37204677 0.56100005 0.15370703 4294704377
0.3725014 0.559129 0.15415739 4284571495
0.37243301 0.55742949 0.1546191 4281480250
0.37413535 0.54255068 0.15286364 4281482816
0.37426975 0.54137605 0.15272504 4281482818
0.37449372 0.53941834 0.15249406 4281744961
0.37471774 0.53746063 0.15226308 4281678909
0.37494171 0.53550285 0.15203209 4281547323
0.3751657 0.53354514 0.15180111 4281547580
0.37589857 0.53164744 0.15084526 4281679164
0.37607789 0.52965444 0.15050568 4281744957
0.37573498 0.52742124 0.14987625 4281481785
0.37595943 0.52545947 0.14964478 4281744444
0.3761839 0.52349764 0.14941332 4281415994
0.37678617 0.52129614 0.14929286 4281350458
0.37710056 0.51958537 0.14930283 4281087544
0.37756449 0.51765025 0.14910232 4280955958
0.3775489 0.51566643 0.14884043 4280889652
0.37804899 0.51370466 0.14893727 4280823602
0.37797371 0.51168275 0.14896019 4280757552
0.37810805 0.51050812 0.14882161 4280889395
0.37096471 0.55830097 0.15510038 4281545536
0.3709988 0.5568217 0.15526643 4281612094
0.37146506 0.55487281 0.15506373 4282334783
0.37144721 0.55290276 0.15480405 4282269246
0.37191328 0.5509553 0.15460153 4282137917
0.37189555 0.54898381 0.15434168 4281678650
0.37236145 0.54703778 0.15413931 4281744958
0.37234396 0.54506487 0.15387931 4281810494
0.37280971 0.54312032 0.15367712 4281745216
0.37279233 0.54114592 0.15341692 4281483072
0.37325791 0.53920281 0.15321489 4281744961
0.37324071 0.53722692 0.15295455 4281809982
0.37356371 0.53553802 0.15276983 4281678653
0.37367576 0.53352618 0.15175694 4281613117
0.37408647 0.53108746 0.15135691 4281612860
0.37431094 0.52912569 0.15112543 4281547578
0.37547809 0.51892436 0.14992183 4281087545
0.37565765 0.51735491 0.14973667 4280758839
0.37588212 0.51539314 0.14950521 4280693045
0.37593561 0.51331425 0.14941718 4280692788
0.37612012 0.51148289 0.14951447 4280692786
0.37666434 0.50942987 0.14970213 4280955959
0.37676147 0.50758874 0.14947219 4280890165
0.37735894 0.50633585 0.14937526 4281022007
0.36932424 0.55659717 0.15593883 4281612096
0.36954868 0.55463535 0.15570736 4282269763
0.36977315 0.55267358 0.15547588 4282072126
0.36999762 0.55071175 0.15524444 4282072383
0.37022206 0.54874998 0.15501298 4281875260
0.37040162 0.54718053 0.1548278 4281744444
0.3709403 0.54247224 0.1542723 4281744700
0.37111989 0.54090279 0.15408713 4281613885
0.37134433 0.53894103 0.15385567 4281548350
0.37152392 0.53737158 0.15367049 4281678910
0.37480095 0.5087294 0.15029114 4281086259
0.37517923 0.50712657 0.1501236 4280889137
0.37577295 0.50507134 0.15011771 4281021238
0.37604746 0.50332665 0.15043223 4281152824
0.3741706 0.50618225 0.1507767 4281218102
0.37430525 0.50500518 0.15063782 4281020979
0.37397483 0.5029555 0.15102379 4281284408
0.37443241 0.50096184 0.15101014 4281481276
0.37439859 0.49922529 0.15087834 4281415996
0.37505239 0.49701563 0.15115196 4281482043
0.3773371 0.47704676 0.14879592 4282468944
0.37756109 0.47508904 0.14856493 4282271053
0.37778512 0.47313133 0.14833395 4282271051
0.37800908 0.47117358 0.14810297 4282337100
0.37823308 0.46921584 0.14787199 4282469710
0.37939784 0.45903563 0.14667088 4282271821
0.37265489 0.50063127 0.15195593 4281415738
0.37326041 0.49880892 0.15166524 4281219387
0.37371519 0.49668351 0.15162829 4281285949
0.3734487 0.49472937 0.15168421 4281417280
0.37393615 0.49271482 0.15179701 4281745731
0.37412637 0.49072334 0.15148459 4281877317
0.37438422 0.48879805 0.15133485 4281877574
0.3745746 0.48680583 0.15102239 4282139975
0.37477979 0.4849565 0.15061246 4282270792
0.3747943 0.48296836 0.15029658 4282008393
0.37522814 0.4810378 0.15015011 4282008910
0.37537 0.47886747 0.14985338 4282140496
0.37597564 0.47691128 0.149516 4282271567
0.37619984 0.47495219 0.1492849 4282271567
0.37642393 0.47299308 0.14905372 4282205516
0.37664807 0.47103399 0.14882258 4282403150
0.37687224 0.4690749 0.14859143 4282403662
0.37671533 0.46710888 0.14846605 4282272076
0.37685761 0.4649348 0.14816891 4282009161
0.37729055 0.46301171 0.14802331 4282140746
0.37730613 0.46101448 0.14770636 4282337614
0.37800795 0.45914868 0.14742033 4282206029
0.37754801 0.45786417 0.14691006 4282140237
0.37220407 0.49651468 0.15225632 4281548095
0.37242854 0.49455288 0.15202487 4281614399
0.37250125 0.49227703 0.15244211 4281811264
0.37233064 0.49069658 0.15224865 4282074180
0.37294978 0.48835665 0.15197957 4282074952
0.37271366 0.48651278 0.15178184 4282074953
0.372951 0.48461524 0.15137641 4282075209
0.37317544 0.48265347 0.15114495 4282140748
0.37339991 0.48069164 0.15091349 4281943627
0.37362438 0.47872987 0.15068203 4282140748
0.37397632 0.47699642 0.1503465 4282206030
0.37467307 0.47493497 0.14971024 4282139980
0.37489757 0.47297317 0.14947878 4282205260
0.37512201 0.47101134 0.14924732 4282271566
0.37534645 0.46904954 0.14901584 4282206030
0.37508243 0.46675327 0.14919411 4282271308
0.37524047 0.46460494 0.1490155 4282336586
0.37546492 0.46264315 0.14878404 4282271051
0.37568936 0.46068138 0.14855258 4282206029
0.3759138 0.45871955 0.14832112 4282140237
0.37664831 0.45767117 0.14767337 4282206030
0.32975489 0.68759906 0.19235712 4290011994
0.32997933 0.68563724 0.19212566 4291259751
0.33020377 0.68367547 0.19189419 4292313212
0.32702711 0.69264174 0.19478625 4292921789
0.32770911 0.69104844 0.1954865 4291275171
0.32866415 0.68929058 0.19419801 4291864478
0.32981649 0.68066925 0.19347747 4291522411
0.32995087 0.67949462 0.19333889 4291917682
0.32967752 0.67753273 0.19221754 4292051068
0.32950103 0.67538655 0.19363864 4292182913
0.32913697 0.67420089 0.19261052 4292645523
0.32663208 0.69242203 0.19643301 4291339928
0.3285515 0.67126137 0.19304977 4292714393
0.32868618 0.6700843 0.19291089 4292315527
0.32405862 0.69441688 0.19735393 4291277228
0.32496154 0.69288892 0.19764799 4290945424
0.32842213 0.66873664 0.19442295 4290926939
0.32835105 0.66715723 0.19379412 4290789696
0.32814866 0.6649062 0.19392075 4290853429
0.32790074 0.66304487 0.19409418 4290918195
0.32272431 0.69533664 0.19851056 4287854204
0.32337046 0.69412929 0.19924928 4288506736
0.3271192 0.66404444 0.19543824 4291116857
0.32738799 0.66169512 0.19516106 4291246903
0.32722309 0.6604563 0.19527638 4291181880
0.3216286 0.69997358 0.200854 4293514197
0.32202464 0.69785213 0.20047297 4292197053
0.32220384 0.69628596 0.20028818 4291143077
0.32637006 0.65987217 0.1959919 4291314236
0.32514468 0.65806895 0.19568567 4291054663
0.32424462 0.6570093 0.19774599 4291975511
0.32436451 0.65654129 0.19675791 4291386972
0.32364607 0.65688092 0.19825381 4293160299
0.32322529 0.65561682 0.19792962 4293033852
0.31233755 0.71360999 0.20774122 4294506995
0.31305 0.71197325 0.20841464 4291477440
0.31143785 0.71341699 0.20850453 4294834933
0.31215212 0.71178061 0.20917636 4290485917
0.30884475 0.71728259 0.21079479 4294770681
0.30906919 0.71532083 0.21056333 4294770681
0.3101927 0.71344906 0.21029717 4293846754
0.31780913 0.65161723 0.20312391 4294228403
0.30794501 0.71708959 0.2115581 4294770681
0.30816948 0.71512783 0.21132663 4294770681
0.30889052 0.71348792 0.21199264 4294046444
0.30626595 0.71833736 0.21301544 4294836217
0.30664596 0.71686268 0.21298985 4294770681
0.30730778 0.71499372 0.21337311 4294770681
0.31490126 0.64823383 0.20422022 4294958807
0.30506635 0.71808004 0.21403317 4294901753
0.30544972 0.71676141 0.21499369 4294901753
0.31346864 0.64667457 0.20672449 4294957522
0.30325091 0.71990013 0.21693289 4294901753
0.3045519 0.71656883 0.2157554 4294901753
0.3010186 0.72123164 0.21754932 4294901753
0.30110839 0.72044694 0.21745674 4294901753
0.30011889 0.72103864 0.21831264 4294901753
0.30020869 0.72025394 0.21822004 4294901753
0.37750226 0.93603176 0.15539695 4282140237
0.37768221 0.93445909 0.15521136 4282337616
0.37786213 0.93288642 0.15502584 4282601301
0.37205541 0.96749181 0.16068417 4282665296
0.37223536 0.96591914 0.16049862 4282336846
0.37246025 0.96395332 0.16026665 4282141522
0.37268519 0.96198744 0.16003473 4282601554
0.37286511 0.96041477 0.15984918 4282535499
0.37457451 0.94547427 0.15808643 4282732883
0.37475446 0.9439016 0.15790087 4282469965
0.37515733 0.9419381 0.15725441 4282469709
0.37523043 0.94010788 0.15662892 4282403406
0.37564716 0.93813741 0.15649615 4282205519
0.37578508 0.93619072 0.15573798 4282403152
0.37636301 0.93429512 0.15558194 4282403151
0.37625298 0.93240899 0.15551209 4282468943
0.37652946 0.93033451 0.15578164 4282271307
0.3765538 0.92817473 0.15604535 4282271821
0.37673375 0.92660207 0.1558598 4282074442
0.37044847 0.9707725 0.16212152 4282337875
0.37058342 0.96959299 0.16198236 4282600274
0.37106678 0.96752143 0.16152789 4282796880
0.37133381 0.96572572 0.1612635 4282403150
0.37155873 0.9637599 0.16103159 4282207315
0.37178361 0.96179402 0.16079962 4282601808
0.37193045 0.95997256 0.16063723 4282470218
0.37193295 0.95779788 0.16059071 4282404434
0.37233779 0.95425934 0.16017321 4283127393
0.37265268 0.95150715 0.1598485 4282732887
0.37287757 0.94954127 0.15961653 4282864216
0.37259945 0.94741505 0.15875883 4282600526
0.37310132 0.94558227 0.15846869 4282797649
0.37320632 0.94374126 0.158232 4282338127
0.37359935 0.94185776 0.15790537 4282535248
0.37370279 0.94009912 0.15740561 4282403406
0.37447023 0.93801486 0.1567087 4282140750
0.3746956 0.93604493 0.15647629 4282600529
0.37492096 0.934075 0.15624386 4282600014
0.3747749 0.93175632 0.15632108 4282533710
0.37483633 0.92991996 0.15645035 4282534481
0.37500846 0.92799002 0.15637361 4282600274
0.37539053 0.92607415 0.15633729 4282402895
0.37522665 0.92397428 0.15630275 4282337100
0.37602648 0.9220193 0.15636934 4282600014
0.36883011 0.97065455 0.16244772 4282273110
0.36916485 0.9692089 0.16230799 4282535255
0.36939007 0.96724033 0.16207571 4282600278
0.36961529 0.96527177 0.16184348 4282206546
0.36984053 0.96330321 0.16161121 4282140756
0.37006578 0.96133465 0.16137895 4282338135
0.37034458 0.95940119 0.16132081 4282469972
0.37062335 0.95746869 0.16126271 4282469456
0.37049419 0.95540076 0.1611115 4282797911
0.37085152 0.95356995 0.16055036 4282995803
0.37110135 0.95135862 0.16018268 4282602070
0.3718904 0.94942611 0.15993038 4282799448
0.37176645 0.94756752 0.15953802 4282469966
0.37176186 0.94550693 0.15917131 4282469711
0.37189704 0.94432497 0.15903185 4282206289
0.37342969 0.93092954 0.15745139 4282665809
0.37356493 0.92974758 0.15731195 4282338643
0.37366226 0.92754835 0.15718403 4282469458
0.37371454 0.92574316 0.15710258 4282600786
0.3739399 0.92377323 0.15687014 4282403404
0.3747347 0.92153472 0.15702303 4282403661
0.37480971 0.9198209 0.15679879 4282469197
0.37525979 0.91787034 0.15660989 4282271818
0.37549919 0.91586387 0.15669341 4282469198
0.37572408 0.91389799 0.15646148 4282731344
0.37594903 0.91193217 0.15622953 4282665551
0.37617394 0.90996629 0.15599759 4282797392
0.3762261 0.9081648 0.15591629 4282797390
0.37602273 0.90590566 0.15604357 4282862159
0.37624764 0.90393978 0.15581167 4282863186
0.37647253 0.90197396 0.1555797 4282731852
0.36767232 0.97046345 0.16316825 4282339413
0.36785263 0.96888751 0.16298231 4282468948
0.36807799 0.96691757 0.1627499 4282468694
0.36830342 0.9649477 0.16251747 4282272598
0.36852878 0.96297777 0.16228506 4282141012
0.36875415 0.96100783 0.16205263 4282272598
0.36897957 0.95903796 0.16182022 4282863705
0.36920494 0.95706803 0.16158779 4282732372
0.36943033 0.95509809 0.16135538 4282666579
0.3696557 0.95312816 0.16112295 4282994774
0.36988109 0.95115829 0.16089053 4282797650
0.37267587 0.92673129 0.15800852 4282535506
0.37262535 0.92537493 0.15802391 4282666578
0.37261909 0.92337459 0.15798829 4282403659
0.37265956 0.9214803 0.15791517 4282667086
0.37288493 0.91951042 0.15768273 4282469196
0.37311032 0.91754049 0.15745033 4282337099
0.3733502 0.91553098 0.15753338 4282534478
0.37385863 0.91351181 0.15748106 4282731855
0.37390187 0.91147333 0.15730871 4282862927
0.37425122 0.90964431 0.15687954 4282862927
0.37425128 0.90765536 0.15660417 4282796878
0.37470159 0.90570796 0.15641515 4282796878
0.3747018 0.90371758 0.15613957 4282601040
0.37515196 0.90177161 0.15595068 4282534734
0.37492007 0.89970928 0.1560688 4282993744
0.37131977 0.92240387 0.1590766 4282535245
0.37145498 0.92122191 0.15893716 4282797393
0.37168041 0.91925204 0.15870473 4282664525
0.37190577 0.9172821 0.15847231 4282730319
0.37190825 0.9151029 0.15842567 4282796367
0.37205541 0.91327763 0.15826297 4283059539
0.37228078 0.91130775 0.15803052 4282928466
0.37250617 0.90933782 0.15779811 4282994258
0.37303269 0.9074325 0.1573102 4282993998
0.37325811 0.90546256 0.15707779 4282927946
0.37348348 0.90349269 0.15684538 4282797132
0.37370884 0.90152276 0.15661295 4282862670
0.37393424 0.89955282 0.15638052 4283059536
0.37442824 0.89728308 0.15678915 4282664778
0.37426913 0.89569759 0.15654202 4282730827
0.374412 0.89307272 0.1571552 4282731083
0.37459195 0.8915 0.15696964 4282796362
0.37477189 0.88992733 0.15678409 4282467910
0.37333003 0.89135015 0.15672827 4282796363
0.37355548 0.88938028 0.15649587 4282796875
0.37359944 0.88733423 0.1568547 4282731341
0.37404954 0.88536847 0.15697841 4282731340
0.37404925 0.88337189 0.15670319 4282665292
0.37449965 0.88143468 0.15651429 4282796879
0.37449947 0.87943667 0.1562389 4282599754
0.37458956 0.87784946 0.15603577 4282665546
0.37206411 0.88623476 0.15770341 4282731086
0.37219936 0.8850528 0.15756397 4282731086
0.37242472 0.88308293 0.15733153 4282731343
0.37296566 0.87835515 0.15677373 4283124559
0.37310091 0.87717313 0.15663427 4283059022
0.37364173 0.87524903 0.15646237 4282796874
0.37409225 0.87331355 0.15627337 4282468166
0.37413645 0.8712613 0.15694489 4282861641
0.37436137 0.86929542 0.15671296 4282664522
0.37251303 0.8742215 0.15707536 4282927950
0.37264824 0.87303954 0.15693592 4282796364
0.37287363 0.87106961 0.15670349 4282598734
0.37266985 0.86880583 0.15683106 4282664784
0.37268618 0.86703461 0.15694523 4282599247
0.37318772 0.86505359 0.15687609 4282599503
0.37318739 0.86304826 0.1566007 4282271562
0.37363812 0.86111724 0.15641168 4282666832
0.37352982 0.85949343 0.15617044 4282732622
0.37420824 0.85717797 0.15659609 4282338116
0.37211791 0.85879791 0.15709737 4282469710
0.37288496 0.85692275 0.15696827 4282271814
0.37293059 0.85488975 0.15763898 4282271557
0.3730655 0.85371023 0.15749982 4282271557
0.37148497 0.85624021 0.15758494 4282271301
0.37097639 0.85461742 0.15798542 4282534216
0.37203151 0.85252166 0.15835732 4282533960
0.37187779 0.85063577 0.1584499 4282533960
0.37516162 0.82193422 0.15506355 4290164149
0.37529659 0.82075477 0.15492439 4290229942
0.37543154 0.81957525 0.15478523 4290361785
0.36994857 0.85348874 0.15883897 4282402889
0.37022069 0.85218799 0.15901846 4282402889
0.37031463 0.85044259 0.15884016 4282271048
0.37049991 0.84832609 0.15957774 4282073670
0.3730886 0.82390648 0.15687166 4281282345
0.37360519 0.82239741 0.15587462 4287004547
0.37419271 0.82070696 0.15520756 4290229685
0.37425044 0.81876493 0.15489964 4290559160
0.37414074 0.81684828 0.15451595 4290559415
0.37450042 0.8147859 0.15460522 4290362808
0.3746742 0.81255072 0.15484951 4290428601
0.37421459 0.81080931 0.15432966 4290494394
0.37443998 0.80883944 0.15409724 4290297015
0.37479949 0.80678254 0.1541868 4290560187
0.37529281 0.80464113 0.15459864 4290889152
0.3755177 0.80267525 0.15436667 4290428601
0.37574264 0.80070937 0.15413475 4290559417
0.37596753 0.79874355 0.1539028 4290362038
0.36887923 0.8520484 0.15972148 4282468425
0.36888167 0.84986919 0.15967484 4282205511
0.36886555 0.8478635 0.16008583 4282271047
0.36879003 0.84583068 0.16010873 4282270789
0.37161335 0.82384706 0.15725225 4281150508
0.37184256 0.82291961 0.15692829 4282530106
0.37343201 0.81225604 0.15502658 4290560187
0.37361228 0.81068015 0.15484065 4290560187
0.37383768 0.80871022 0.15460822 4290560187
0.3741976 0.80665338 0.15469745 4290494392
0.37469175 0.80451214 0.15510856 4290691771
0.37441412 0.80260879 0.15464927 4290297014
0.3746393 0.80064088 0.15441711 4290296758
0.37486443 0.79867303 0.15418491 4290296245
0.37467042 0.796426 0.15452352 4290296245
0.37464601 0.79464805 0.15406995 4290624953
0.37489319 0.7930339 0.15404525 4294506990
0.36752313 0.84772098 0.16078956 4282270790
0.3677485 0.84575105 0.16055715 4282270531
0.36825103 0.84355527 0.16096003 4282138689
0.36825526 0.84180677 0.16109595 4282204482
0.36819401 0.83977503 0.16136959 4281941823
0.36990345 0.82483453 0.15960683 4281218098
0.37051404 0.82405484 0.15874162 4281413424
0.37036297 0.8229 0.15786107 4281805358
0.37342823 0.79610914 0.15470015 4290099634
0.37348047 0.79430389 0.15461871 4290296244
0.37388387 0.79236573 0.1547609 4294572782
0.37402463 0.79071915 0.15487012 4294901751
0.37404194 0.78866279 0.15533911 4294901753
0.36658356 0.84334832 0.16150153 4282072896
0.36658353 0.84125799 0.16178747 4282204739
0.36665571 0.83937472 0.16188462 4281941823
0.36670634 0.83764994 0.16193767 4282204482
0.36842379 0.82477635 0.15999119 4281217068
0.36851391 0.82398891 0.1598983 4281150505
0.37259865 0.7898764 0.15528032 4294901752
0.37276983 0.78809351 0.15562375 4294901753
0.37210092 0.78613675 0.15562844 4294901753
0.36523291 0.84077126 0.16260071 4282139715
0.36522749 0.83902091 0.16256961 4281941823
0.36559954 0.83698344 0.16258633 4282401603
0.36600643 0.83517915 0.16281271 4282533189
0.36732724 0.8249833 0.16147821 4281479986
0.36717123 0.82382995 0.1606019 4281084715
0.37131831 0.78758347 0.15632536 4294901753
0.37149861 0.78600758 0.15613942 4294901753
0.3721979 0.78365457 0.15654658 4294901753
0.37159675 0.78143978 0.15661965 4294901753
0.37198138 0.77976149 0.15691458 4294836217
0.36392191 0.83604985 0.16362232 4282402374
0.36405712 0.83486789 0.16348284 4282336838
0.36496201 0.8330394 0.16398826 4282666315
0.36542571 0.82669193 0.16320039 4282270527
0.36541909 0.82539624 0.16265382 4281941561
0.37066907 0.77977479 0.1567196 4294901753
0.37062544 0.77780288 0.15737373 4294836217
0.36259648 0.83415091 0.16471383 4282271301
0.36321965 0.83253425 0.16458751 4282534986
0.36344492 0.83056569 0.16435526 4282665802
0.36367011 0.82859713 0.16412298 4282599752
0.36370936 0.82672185 0.16387595 4282336579
0.36358818 0.82548326 0.16369118 4282205250
0.36967552 0.77515078 0.15780102 4294770681
0.36999643 0.77289063 0.15846702 4294770681
0.37152588 0.7595228 0.15688983 4294770681
0.37175083 0.75755692 0.1566579 4293388770
0.37179905 0.75535953 0.15544519 4289967279
0.37237939 0.75357044 0.15528937 4289375404
0.37237877 0.75152397 0.15501343 4289112745
0.37282977 0.74963409 0.15482494 4289113259
0.37282932 0.74758619 0.15454879 4289047209
0.37328014 0.74569774 0.15436052 4289244072
0.37340006 0.74355519 0.15408933 4289572523
0.37362531 0.74158663 0.15385708 4289440681
0.37385052 0.73961806 0.15362479 4289243560
0.37407577 0.7376495 0.15339255 4288980902
0.37430096 0.73568094 0.15316029 4289046695
0.37452623 0.73371238 0.15292802 4289046695
0.37475145 0.73174381 0.15269578 4289309867
0.37524524 0.72970623 0.15310937 4289244074
0.37528557 0.72781587 0.15303639 4289572525
0.37539452 0.72571009 0.15290043 4292006604
0.36166236 0.8315286 0.16545688 4282797131
0.3617976 0.83034664 0.16531743 4282796360
0.362023 0.82837677 0.16508497 4282598981
0.3622033 0.82680082 0.16489907 4282533188
0.36868 0.77288967 0.15827525 4294770681
0.36832014 0.77082562 0.15886855 4294770681
0.36863646 0.76902133 0.15867153 4294770681
0.3684527 0.76678616 0.15834443 4294770681
0.3689504 0.76474112 0.15814118 4294770681
0.36922124 0.76295 0.15793934 4294770681
0.36955565 0.76110393 0.15747568 4294770681
0.37025771 0.75910026 0.15664831 4294770681
0.37048307 0.75713032 0.15641589 4292599256
0.37061831 0.75594842 0.15627643 4289901487
0.37363848 0.72955149 0.153162 4289441453
0.37337333 0.72724575 0.15334097 4289704112
0.37348691 0.72548246 0.15320812 4292203985
0.37380174 0.72387594 0.15334506 4294901752
0.37232748 0.72483009 0.15418361 4294901751
0.37246269 0.72364813 0.15404415 4294901752
0.37658718 0.68568385 0.15106618 4286874756
0.37681207 0.68371797 0.15083422 4286743170
0.37703702 0.68175215 0.1506023 4286545791
0.37726194 0.67978626 0.15037034 4286480508
0.37129155 0.72120452 0.15630737 4294901753
0.37520516 0.68699867 0.15227158 4287138183
0.37535337 0.6853776 0.15158641 4286940550
0.37534198 0.68346542 0.15120648 4286809221
0.3755672 0.68149686 0.15097426 4286612098
0.37579244 0.6795283 0.15074196 4286677377
0.37628478 0.67756253 0.15115827 4286612097
0.37650967 0.67559671 0.15092631 4286480768
0.37673461 0.67363083 0.15069439 4286612607
0.37645906 0.6715923 0.15023054 4286612354
0.37683594 0.66978061 0.15009123 4286677635
0.3773644 0.66812646 0.15004495 4286743429
0.36992779 0.72059584 0.15680078 4294901753
0.36976078 0.71905327 0.1571307 4294901753
0.37290719 0.69093674 0.15431161 4292335826
0.37322935 0.68904513 0.15334107 4287926152
0.37385562 0.68716329 0.1527686 4287138180
0.37409878 0.68534994 0.15230517 4287137927
0.37391385 0.68399781 0.15199712 4287072135
0.37422943 0.6812399 0.15167172 4286874758
0.3744548 0.67927003 0.15143931 4286743170
0.37518197 0.67736685 0.15143754 4286546047
0.3751424 0.67525101 0.15126374 4286612096
0.37526441 0.6733644 0.15106647 4286611840
0.37505516 0.67132574 0.15076509 4286743425
0.37563026 0.6693244 0.15075962 4286875011
0.37607348 0.66746706 0.15069421 4286874757
0.37629858 0.66549981 0.15046215 4286940550
0.37652361 0.66353261 0.15023001 4286809734
0.37628102 0.6614489 0.1508325 4287204494
0.37650591 0.65948308 0.15060054 4288980136
0.37673083 0.65751719 0.15036863 4294901753
0.36856222 0.7199859 0.15729561 4294901753
0.36854509 0.71832532 0.15760493 4294901753
0.36806449 0.71624625 0.15764372 4294901753
0.36789858 0.71499968 0.15775976 4294901753
0.36988193 0.69766444 0.15571445 4294770681
0.37001717 0.69648248 0.15557501 4294770681
0.37024257 0.69451255 0.15534258 4294770681
0.37097409 0.69259369 0.15533681 4294770681
0.3718009 0.69075489 0.15459417 4292270031
0.3721233 0.68886119 0.15362337 4287861129
0.37225854 0.68767923 0.15348391 4287269765
0.37374607 0.67467779 0.15194994 4286875009
0.37392637 0.67310184 0.15176401 4286809216
0.37415177 0.67113197 0.15153158 4286809216
0.37437713 0.66916203 0.15129916 4286875009
0.37460253 0.6671921 0.15106675 4286940804
0.37482792 0.66522217 0.15083432 4286874756
0.37475213 0.66318768 0.15085737 4286809989
0.37517819 0.66123658 0.15111144 4287204750
0.37513861 0.65911651 0.15093757 4289901235
0.37539446 0.65724391 0.15106453 4294901749
0.37516192 0.65599102 0.15101822 4294901753
0.3672061 0.71565849 0.1583637 4294901753
0.36765036 0.71381706 0.15869835 4294901753
0.36764699 0.71224326 0.15857524 4294901753
0.36723492 0.71001351 0.1582239 4294901753
0.36746031 0.70804358 0.15799148 4294901753
0.36768568 0.70607364 0.15775906 4294901753
0.36791107 0.70410377 0.15752664 4294901753
0.36891505 0.70199305 0.15737846 4294901753
0.36923987 0.70026445 0.15719132 4294836217
0.36974305 0.69850069 0.15690152 4294770681
0.36941487 0.69635326 0.15608598 4294770681
0.36964029 0.69438338 0.15585355 4294770681
0.36986566 0.69241345 0.15562114 4294770681
0.37374228 0.65853089 0.1516235 4291677641
0.37392259 0.65695494 0.15143757 4294901749
0.3742854 0.65489602 0.15174335 4294901753
0.37413046 0.65333402 0.15250075 4294901753
0.36615118 0.71139562 0.1591763 4294901753
0.36633146 0.70981967 0.15899034 4294901753
0.36651179 0.70824379 0.15880443 4294901753
0.37285846 0.65259701 0.15278187 4294901755
0.37297237 0.65148407 0.15301244 4294901755
0.3748942 0.62688941 0.14999518 4294770683
0.3751196 0.62491947 0.14976275 4294770683
0.37590206 0.62275904 0.14957714 4287795862
0.3765808 0.62092036 0.14942086 4287072395
0.37656534 0.61896688 0.14915939 4286743686
0.37716872 0.61703527 0.14898102 4286677636
0.37759236 0.61500305 0.14876597 4286611585
0.37763157 0.61298984 0.14850372 4286809219
0.37746581 0.6110965 0.14823082 4287269769
0.37793103 0.60911912 0.14802846 4287270025
0.37791607 0.60716128 0.14776655 4287073415
0.37838107 0.60518539 0.14756435 4286613377
0.37836632 0.60322613 0.14730224 4286349949
0.37896857 0.60130382 0.14712496 4286349949
0.37934676 0.59966934 0.14695683 4286678400
0.37133124 0.64994061 0.15350419 4294901753
0.3733601 0.63584745 0.15280072 4294901753
0.37354001 0.63427478 0.15261517 4294901753
0.37351733 0.6326533 0.15194421 4294836217
0.37354001 0.63063544 0.15122645 4294770681
0.37418568 0.62889653 0.15107852 4294770681
0.37489229 0.6188159 0.14983192 4286809480
0.3755821 0.61669147 0.14963849 4286677892
0.37568 0.61485946 0.14940804 4286612098
0.37581995 0.61305094 0.14918609 4286678147
0.37579387 0.61093628 0.14890224 4287138697
0.37601927 0.60896635 0.14866985 4287204232
0.37624463 0.60699642 0.1484374 4286941829
0.37647003 0.60502648 0.14820501 4286547326
0.37669539 0.60305661 0.14797257 4286415739
0.37738395 0.60094297 0.1477804 4286415483
0.37748215 0.59910828 0.14754963 4286546813
0.37792841 0.5970279 0.14778388 4286678399
0.37799343 0.59535086 0.14802273 4286875777
0.37012666 0.64968222 0.15452616 4294901753
0.3704465 0.64819819 0.15527464 4294901753
0.37085342 0.64699155 0.15516582 4294901753
0.37130621 0.63799763 0.15403275 4294901753
0.37165928 0.6362868 0.1529457 4294901753
0.37188464 0.63431686 0.15271324 4294901753
0.37206498 0.63274091 0.15252733 4294901753
0.37553591 0.60240424 0.14894806 4286481793
0.37571621 0.60082829 0.14876212 4286481793
0.37582538 0.59871811 0.14862587 4286546817
0.37602815 0.59669811 0.14859958 4286809474
0.3762621 0.59492916 0.14873952 4287006852
0.37690106 0.59323668 0.14891106 4287335817
0.36877248 0.64769185 0.15590322 4294901753
0.36925068 0.64594805 0.15618271 4294901753
0.36936522 0.64385259 0.15637088 4294901753
0.36970609 0.64202666 0.15604295 4294901753
0.36984 0.63993078 0.15500969 4294901753
0.36953688 0.63865709 0.15480402 4294901753
0.37440521 0.59610689 0.14978373 4286875015
0.37478465 0.59447128 0.14961442 4286875271
0.37527117 0.59240413 0.14962688 4287729806
0.37548304 0.59038132 0.15006207 4294309101
0.3671675 0.64723098 0.1569996 4294901753
0.36721972 0.6454258 0.15691814 4294901753
0.36744514 0.64345586 0.15668575 4294901753
0.36767051 0.64148593 0.1564533 4294901753
0.36849821 0.63964522 0.15570994 4294901753
0.37377223 0.59354919 0.1502713 4287007114
0.37408715 0.59203398 0.15040994 4288059797
0.3735674 0.59019959 0.15070616 4293914858
0.37420532 0.58809316 0.15110491 4294901753
0.37438527 0.58652043 0.15091939 4294901753
0.36575916 0.64470881 0.15814912 4294901753
0.36593944 0.64313287 0.15796319 4294901753
0.36616483 0.64116293 0.15773076 4294901753
0.37241614 0.58922178 0.15133938 4294901753
0.37318313 0.58799446 0.15144888 4294901753
0.37277865 0.58611578 0.15153015 4294901753
0.37290397 0.58413374 0.15147671 4294901753
0.36485574 0.64451504 0.15891559 4294901753
0.36503601 0.64293909 0.15872966 4294901753
0.36526141 0.64096916 0.15849724 4294901753
0.3715722 0.5858115 0.15198946 4294901753
0.37149641 0.58377695 0.15201253 4294901753
0.3712559 0.58174533 0.15261431 4294901753
0.37182453 0.57969815 0.15263528 4294901753
0.37021607 0.58148408 0.15305756 4294901753
0.3707211 0.57923883 0.15333216 4294901753
0.37084088 0.57742119 0.15319285 4294901753
0.37065652 0.5760529 0.15388547 4294901753
0.37173614 0.56661677 0.15277216 4294901753
0.37187108 0.56543726 0.15263298 4294901753
0.37205103 0.56386459 0.15244743 4294901753
0.36893576 0.57919115 0.15410258 4294836218
0.36943698 0.57736242 0.15451406 4294836218
0.36911905 0.57545847 0.15452731 4294770682
0.36870849 0.57308763 0.15417178 4294770683
0.36893389 0.5711177 0.15393937 4294770683
0.36915925 0.56914777 0.15370694 4294770683
0.37036967 0.56703395 0.15306973 4294770682
0.37054813 0.56521416 0.15309943 4294770682
0.37065288 0.56320554 0.15313341 4294770682
0.37111884 0.56124771 0.15318896 4294770683
0.36788082 0.57492828 0.15491518 4294770681
0.36810619 0.57295841 0.15468277 4294770681
0.36833161 0.57098848 0.15445034 4294770681
0.36855698 0.56901854 0.15421791 4294770681
0.36909792 0.56429076 0.15366012 4294770681
0.36915016 0.56248558 0.15357868 4294705145
0.3697786 0.56090814 0.1538868 4294639609
0.36995867 0.55933434 0.1537011 4288387741
0.37255457 0.5325526 0.15137877 4281678653
0.37273452 0.53097993 0.1511932 4281612860
0.37295941 0.52901405 0.15096124 4281678651
0.37371767 0.52712446 0.150057 4281415992
0.37397268 0.52524608 0.14969167 4281547066
0.37395623 0.52325732 0.14943033 4281481273
0.37442276 0.52131236 0.14922754 4281219128
0.37423781 0.51952344 0.14915164 4281350201
0.37430894 0.51721895 0.1495696 4281021749
0.37453386 0.51525307 0.14933768 4280430896
0.37471381 0.5136804 0.14915213 4280430642
0.36822581 0.55838352 0.15465873 4282532681
0.36796242 0.5565424 0.15578461 4281481532
0.36818731 0.55457658 0.15555266 4281876546
0.36841226 0.5526107 0.15532073 4281810239
0.36863714 0.55064487 0.15508877 4282007103
0.36886209 0.54867899 0.15485685 4281810237
0.36948362 0.54647595 0.15428184 4281810237
0.36991301 0.54487622 0.15388305 4281810237
0.36984894 0.54299551 0.15333594 4281876030
0.36934829 0.54052895 0.15296146 4281876032
0.36957365 0.53855902 0.15272905 4281810239
0.3704882 0.53613561 0.15268831 4281744189
0.37108257 0.53465378 0.15267695 4281809726
0.37126848 0.53272659 0.15215048 4281547067
0.37101716 0.53056496 0.15133478 4281547579
0.37130287 0.52883863 0.15105595 4281678907
0.37152824 0.5268687 0.1508235 4281744700
0.37175363 0.52489883 0.15059111 4281613115
0.37197897 0.52292889 0.15035866 4281547578
0.37220439 0.52095902 0.15012626 4281612859
0.37242976 0.51898909 0.14989382 4281480761
0.37265515 0.51701915 0.14966142 4281152052
0.37288055 0.51504922 0.14942898 4280889648
0.37331629 0.51288635 0.14934191 4280693041
0.37350225 0.51106465 0.1495686 4280693042
0.37377894 0.50920343 0.1494824 4281086772
0.3736304 0.50700283 0.14993969 4280954930
0.36664179 0.55609447 0.1555873 4281744189
0.36686715 0.55412459 0.15535484 4281679936
0.36709252 0.55215466 0.15512246 4281679935
0.36731791 0.55018473 0.15489002 4281876543
0.36754331 0.54821485 0.15465762 4281876285
0.36776868 0.54624492 0.15442516 4281876799
0.36799407 0.54427499 0.15419278 4281744958
0.36821947 0.54230511 0.15396033 4281810751
0.36844486 0.54033518 0.15372793 4282007360
0.36867023 0.53836524 0.15349548 4282006847
0.36889562 0.53639531 0.15326309 4281875261
0.36912099 0.53442538 0.15303065 4281941310
0.36934638 0.5324555 0.15279825 4281809980
0.36952671 0.53087956 0.15261231 4281613114
0.36979714 0.52851564 0.15233341 4281481528
0.36993238 0.52733368 0.15219395 4281547320
0.37191579 0.50999844 0.15014866 4280823602
0.372051 0.50881648 0.1500092 4280889396
0.37227637 0.50684661 0.14977674 4280955189
0.37268245 0.50460356 0.14982286 4281087031
0.36566257 0.55386621 0.15637681 4281744959
0.36588797 0.55189627 0.15614441 4281679936
