# .PCD v0.7 - Point Cloud Data file format
VERSION 0.7
FIELDS x y z rgb
SIZE 4 4 4 4
TYPE F F F U
COUNT 1 1 1 1
WIDTH 1120
HEIGHT 1
VIEWPOINT 0 0 0 1 0 0 0
POINTS 1120
DATA ascii
0.75190455 1.0257063 0.16480383 4281745729
0.75123882 1.0249063 0.16403186 4281679936
0.74684274 1.0266339 0.16385764 4281679934
0.74524409 1.0277171 0.1641138 4281614143
0.74111533 1.0267615 0.16213949 4281614656
0.73951662 1.0278447 0.16239567 4281614656
0.7379179 1.0289279 0.16265185 4281745475
0.73631918 1.0300112 0.16290803 4281876290
0.73352021 1.0356606 0.16599245 4281941825
0.73192149 1.0367439 0.16624863 4281876289
0.72286212 1.042882 0.16770032 4281745729
0.72179627 1.0436041 0.1678711 4281679936
0.72019756 1.0446874 0.16812728 4281810752
0.71859884 1.0457705 0.16838346 4281876545
0.70860821 1.0487868 0.16734847 4281548346
0.70700949 1.04987 0.16760466 4281679162
0.70168048 1.0534807 0.16845858 4281679164
0.70008177 1.0545639 0.16871476 4281679165
0.69941604 1.053764 0.16794281 4281744959
0.69848305 1.0556471 0.16897094 4281744959
0.69781733 1.0548472 0.16819899 4281744959
0.69688433 1.0567304 0.16922712 4281679166
0.69621867 1.0559305 0.16845517 4281810495
0.69528562 1.0578136 0.1694833 4281614143
0.69461995 1.0570136 0.16871135 4281810239
0.69421983 1.0585357 0.16965409 4281548350
0.6935541 1.0577358 0.16888213 4281679166
0.68995661 1.0614243 0.17033723 4281942336
0.68929094 1.0606244 0.16956528 4281876543
0.68889081 1.0621464 0.17050801 4281942336
0.68822509 1.0613465 0.16973606 4281876543
0.68729204 1.0632297 0.17076419 4281941823
0.68662632 1.0624297 0.16999224 4281810237
0.68569332 1.0643128 0.17102037 4281876543
0.68502766 1.0635129 0.17024842 4281744957
0.68009698 1.0706067 0.1736744 4282008644
0.67943132 1.0698067 0.17290245 4282468682
0.67849833 1.0716898 0.17393059 4281811522
0.6778326 1.0708899 0.17315863 4282205510
0.67743248 1.072412 0.17410137 4281876545
0.67676681 1.0716121 0.17332941 4282204995
0.66784024 1.0789113 0.17563844 4281744957
0.66717458 1.0781113 0.1748665 4281679162
0.66331142 1.0794778 0.17460687 4281744955
0.6626457 1.0786779 0.17383493 4281810748
0.66091418 1.0786 0.17323372 4281876541
0.65984839 1.0793222 0.1734045 4281810750
0.65705109 1.0799665 0.17297412 4281876543
0.65638536 1.0791665 0.17220215 4281876543
0.65598524 1.0806887 0.17314491 4281876545
0.65531951 1.0798887 0.17237294 4281876545
0.65092355 1.0816163 0.17219874 4281942081
0.64932477 1.0826995 0.17245491 4281876545
0.64772606 1.0837827 0.17271109 4281745217
0.63600218 1.0917262 0.17458974 4281810748
0.63440347 1.0928094 0.17484592 4281810748
0.63247186 1.0934926 0.1747161 4281810749
0.63094044 1.0926539 0.17364356 4281810748
0.63054037 1.0941759 0.17458631 4281614139
0.62987465 1.0933759 0.17381434 4281679932
0.62894166 1.0952592 0.17484249 4281614141
0.62827593 1.0944592 0.17407052 4281679933
0.62734294 1.0963423 0.17509867 4281679934
0.62667722 1.0955424 0.1743267 4281745727
0.62441278 1.0958257 0.1738109 4281613884
0.62281406 1.0969088 0.17406708 4281810237
0.61428761 1.102686 0.17543337 4281876545
0.61322176 1.1034081 0.17560415 4281876545
0.61242163 1.1064523 0.17748967 4281810750
0.61175591 1.1056525 0.1767177 4281810750
0.61135578 1.1071745 0.17766047 4281810750
0.61069012 1.1063745 0.1768885 4281876030
0.60988992 1.1094187 0.178774 4281876545
0.60829121 1.1105019 0.17903018 4281679678
0.60669249 1.1115851 0.17928636 4281614141
0.60509378 1.1126684 0.17954254 4281679934
0.60349506 1.1137515 0.17979872 4281876545
0.60189635 1.1148348 0.1800549 4281876289
0.60029769 1.115918 0.18031107 4281941825
0.59869897 1.1170012 0.18056725 4281941825
0.59430289 1.1187288 0.18039304 4281744444
0.59363723 1.1179287 0.17962107 4281678651
0.59017253 1.1227783 0.18193354 4281875515
0.58857375 1.1238616 0.18218972 4281941051
0.58697504 1.1249448 0.1824459 4281941051
0.57991451 1.1284777 0.18269865 4281481272
0.57924879 1.1276777 0.18192668 4281481530
0.57831579 1.1295608 0.18295483 4281481787
0.57765007 1.1287609 0.18218286 4281613373
0.57725 1.130283 0.18312562 4281613373
0.57658428 1.1294831 0.18235365 4281678912
0.5649932 1.1385876 0.18508965 4281744703
0.56432748 1.1377877 0.18431769 4281678910
0.54953897 1.1490587 0.18756606 4281548863
0.54887325 1.1482587 0.18679409 4281548863
0.54847318 1.1497809 0.18773684 4281548863
0.54780746 1.1489809 0.18696487 4281548863
0.53555238 1.1522803 0.18541408 4281810750
0.53488666 1.1514804 0.18464212 4281744957
0.53262222 1.1517637 0.18412632 4281614141
0.75125349 1.0267583 0.16407515 4281679936
0.74965268 1.0278429 0.16433166 4281614141
0.74879551 1.0296602 0.16407536 4281810750
0.74772704 1.0303842 0.16424657 4281744959
0.74565738 1.0299051 0.16325687 4281614143
0.74391794 1.0279707 0.16261132 4281548350
0.74285084 1.0286938 0.16278231 4281483070
0.74161714 1.0301455 0.16278146 4281483071
0.74031478 1.033525 0.16411297 4281810498
0.74038219 1.0315981 0.16278085 4281679682
0.73924625 1.0342489 0.16428418 4282007618
0.73804855 1.0319475 0.16355184 4281876033
0.73817772 1.0349729 0.16445541 4282204997
0.73644781 1.0330322 0.16380833 4282204740
0.73584694 1.0353181 0.16522425 4282270020
0.73543906 1.0387099 0.16621558 4281942338
0.73383629 1.0397959 0.16647243 4281811522
0.73151094 1.0401349 0.16723871 4281679681
0.72991019 1.0412195 0.16749522 4281548609
0.72830951 1.0423042 0.16775171 4281614402
0.72670877 1.0433887 0.16800822 4281614402
0.72546488 1.0448498 0.16801068 4281614143
0.72421968 1.0463116 0.16801341 4281614143
0.71894443 1.0480045 0.16753738 4281942338
0.71787596 1.0487285 0.16770859 4281942338
0.71510464 1.0474933 0.1672284 4281876546
0.7135039 1.0485779 0.16748492 4281745215
0.71171767 1.050404 0.16757259 4281679677
0.71046376 1.0518694 0.16757502 4281548347
0.70939523 1.0525934 0.16774623 4281679162
0.7066347 1.0513533 0.167266 4281613369
0.70725822 1.0540413 0.16808867 4281744444
0.70556748 1.0520763 0.167437 4281678651
0.7056554 1.0551273 0.16834551 4281744444
0.70396674 1.0531609 0.16769351 4281744444
0.70405269 1.0562133 0.16860233 4281679164
0.70244992 1.0572993 0.16885917 4281613629
0.70084709 1.0583851 0.16911601 4281679166
0.69924432 1.0594711 0.16937284 4281547837
0.69710732 1.0609192 0.16971527 4281416764
0.69550455 1.062005 0.16997209 4281482813
0.69390178 1.063091 0.17022893 4281613887
0.69229901 1.064177 0.17048576 4281679677
0.69069618 1.065263 0.17074259 4281679421
0.68909341 1.0663489 0.17099942 4281876543
0.68715811 1.0670445 0.17150804 4281811007
0.68522406 1.0677389 0.17201649 4281811008
0.68475199 1.0711718 0.17301641 4282073924
0.68362337 1.0688236 0.172273 4281876289
0.68368345 1.0718957 0.17318763 4281942338
0.68202263 1.0699081 0.17252949 4282073924
0.68208069 1.0729817 0.17344446 4281811265
0.68047792 1.0740677 0.17370129 4281679936
0.67854804 1.0747583 0.17420819 4281744958
0.67661947 1.0754479 0.17471492 4281744442
0.67501873 1.0765325 0.17497143 4281744957
0.67341799 1.0776172 0.17522794 4281614141
0.6718173 1.0787017 0.17548445 4281613884
0.67000467 1.0805469 0.17557719 4281744957
0.66872418 1.0820315 0.17558472 4281614141
0.66708237 1.0800309 0.17492354 4281548347
0.66765571 1.0827554 0.17575593 4281744957
0.66548163 1.0811155 0.17518005 4281679419
0.66288108 1.0809987 0.17427713 4281679164
0.66221452 1.0801977 0.1735042 4281810748
0.66159666 1.0824836 0.17428358 4281744957
0.66021371 1.0811359 0.17353155 4281810750
0.65867972 1.0819664 0.17363071 4281876543
0.65750653 1.0846153 0.17385879 4281876545
0.65735471 1.0830641 0.17356272 4281942337
0.65554553 1.0822111 0.1728133 4281876545
0.65487897 1.0814101 0.17204034 4281810752
0.65643799 1.0853393 0.17403001 4281679936
0.6557706 1.0845373 0.17325605 4281811522
0.65447837 1.0829341 0.17298429 4281942338
0.65381187 1.0821332 0.17221135 4281810752
0.65536946 1.0860633 0.17420124 4281679936
0.65470207 1.0852613 0.17342727 4281745729
0.65287763 1.0840187 0.1732408 4281876545
0.65221107 1.0832177 0.17246786 4281876545
0.65127689 1.0851033 0.1734973 4281876545
0.65061033 1.0843023 0.17272435 4281942338
0.64967614 1.0861878 0.17375381 4281745472
0.64900959 1.085387 0.17298086 4281745472
0.64949262 1.0900452 0.17514294 4281679936
0.64882523 1.0892432 0.17436898 4281614143
0.64807546 1.0872725 0.17401031 4281679682
0.64740884 1.0864716 0.17323737 4281679682
0.64788985 1.0911311 0.17539977 4281744959
0.64722246 1.0903292 0.17462581 4281744959
0.64647472 1.0883571 0.17426682 4281679682
0.64580816 1.0875561 0.17349388 4281679682
0.64628714 1.0922171 0.1756566 4281678910
0.64561969 1.091415 0.17488264 4281678910
0.6443404 1.0898032 0.17460883 4281679936
0.64367384 1.0890023 0.17383587 4281745729
0.64468431 1.0933031 0.17591342 4281744446
0.64401692 1.092501 0.17513947 4281744446
0.64273965 1.0908878 0.17486532 4281876545
0.64207309 1.0900868 0.17409238 4281942338
0.64308155 1.0943891 0.17617026 4281810239
0.64241409 1.093587 0.17539631 4281876032
0.64113885 1.0919724 0.17512183 4282007616
0.64047235 1.0911714 0.17434889 4282139202
0.64147878 1.095475 0.1764271 4281876543
0.64081132 1.094673 0.17565313 4281942336
0.63953811 1.0930569 0.17537834 4281942334
0.63887155 1.0922559 0.1746054 4281876541
0.63987601 1.096561 0.17668392 4281810750
0.63920856 1.0957589 0.17590997 4281876543
0.63793737 1.0941416 0.17563485 4281876541
0.63727081 1.0933406 0.17486189 4281810748
0.63827324 1.097647 0.17694075 4281810750
0.63760585 1.0968449 0.17616679 4281810750
0.63633662 1.0952262 0.17589134 4281810750
0.63567007 1.0944252 0.1751184 4281810750
0.63600302 1.0979309 0.17642362 4281810750
0.63473594 1.0963107 0.17614785 4281876543
0.63366932 1.0953633 0.17514576 4281810750
0.63440025 1.0990168 0.17668045 4281745727
0.6331352 1.0973953 0.17640436 4281745727
0.63213533 1.0961939 0.17524494 4281614140
0.63179642 1.0988998 0.17577641 4281679935
0.63020134 1.0968779 0.17511499 4281614141
0.62919253 1.0987829 0.17487235 4281614141
0.6263333 1.0982462 0.17485505 4281745216
0.62566674 1.0974452 0.1740821 4281811007
0.62445158 1.1001137 0.17431073 4281941823
0.62284881 1.1011997 0.17456757 4282007359
0.62179869 1.0988134 0.17382213 4281941053
0.61966437 1.1002595 0.17416415 4281810237
0.61806363 1.1013441 0.17442064 4281876030
0.61750627 1.1048197 0.17542365 4281876545
0.61646283 1.1024287 0.17467715 4281810752
0.61643773 1.1055436 0.17559488 4281876545
0.61493313 1.1063656 0.17611791 4281810750
0.61339438 1.1057605 0.17604864 4281876032
0.61423331 1.1089185 0.17726943 4281810750
0.6123454 1.1095871 0.17777407 4281876543
0.61202884 1.1122935 0.17894398 4281876545
0.61089295 1.1149443 0.1804473 4281679934
0.61052608 1.1131124 0.17946559 4281745727
0.60899103 1.1125016 0.17939349 4281679934
0.60982442 1.1156683 0.18061851 4281679934
0.60859048 1.1140257 0.18033743 4281745727
0.60792392 1.1132247 0.17956448 4281679934
0.60822159 1.1167543 0.18087535 4281417275
0.60698968 1.1151103 0.18059394 4281614654
0.60632312 1.1143093 0.17982098 4281614654
0.60661882 1.1178402 0.18113217 4281482557
0.60538894 1.1161948 0.18085043 4281745729
0.60472238 1.1153939 0.18007749 4281745729
0.60555029 1.1185642 0.1813034 4281614143
0.6037882 1.1172794 0.18110694 4281810752
0.60312164 1.1164784 0.180334 4281810752
0.60187793 1.1191711 0.18057057 4281744959
0.60027522 1.1202571 0.18082739 4281810239
0.59711933 1.1192929 0.18041608 4281876030
0.59551859 1.1203774 0.18067259 4281810237
0.59546685 1.123515 0.18159789 4281941308
0.59391785 1.121462 0.18092909 4281810235
0.59386408 1.124601 0.18185472 4281876028
0.5923171 1.1225466 0.1811856 4281941051
0.59226131 1.125687 0.18211155 4281941821
0.59065855 1.126773 0.18236838 4282007614
0.58905578 1.1278589 0.18262522 4282006845
0.58745301 1.1289449 0.18288204 4281875260
0.58591413 1.1268849 0.18221162 4281941051
0.58638448 1.1296688 0.18305327 4281678651
0.58458096 1.128399 0.18222308 4281678906
0.58324635 1.1299138 0.18223481 4281547065
0.58164358 1.1309998 0.18249165 4281547065
0.58004075 1.1320858 0.18274847 4281481787
0.57671028 1.1318685 0.1828067 4281613373
0.57604373 1.1310675 0.18203375 4281678912
0.57510948 1.132953 0.18306319 4281613373
0.57444298 1.1321521 0.18229026 4281613373
0.57369709 1.1345026 0.18244368 4281547580
0.57209438 1.1355886 0.18270051 4281547837
0.57030731 1.1362069 0.18383272 4281548350
0.56964076 1.1354058 0.18305977 4281614143
0.56870657 1.1372914 0.18408921 4281744959
0.56804001 1.1364905 0.18331628 4281679166
0.56710583 1.138376 0.18434572 4281810239
0.56643927 1.137575 0.18357278 4281744446
0.56347877 1.1433074 0.18540238 4281679164
0.56136942 1.1435153 0.18614468 4281614141
0.55976868 1.1445999 0.18640119 4281744955
0.55816793 1.1456845 0.1866577 4281679932
0.55656713 1.146769 0.18691421 4281614398
0.55468148 1.1486574 0.18701421 4281352254
0.55332786 1.1501852 0.18702897 4281417791
0.54736334 1.1517526 0.18750928 4281548608
0.54669678 1.1509516 0.18673633 4281548608
0.54591572 1.153326 0.1868954 4281548353
0.54282874 1.1523198 0.18647636 4281548351
0.541228 1.1534044 0.18673287 4281679936
0.5389607 1.1536881 0.18621644 4281744959
0.53829414 1.152887 0.18544351 4281744959
0.53750241 1.155264 0.18560092 4281810750
0.53489852 1.155147 0.18469687 4281679934
0.53423113 1.1543449 0.18392295 4281614141
0.53196096 1.1546289 0.18340583 4281614141
0.53129357 1.153827 0.18263191 4281679934
0.53029245 1.152624 0.18147101 4281614141
0.53089243 1.155353 0.18357705 4281744957
0.53022504 1.1545509 0.18280312 4281810750
0.52922392 1.153348 0.18164222 4281744957
0.74773341 1.0322441 0.16429283 4281614143
0.74706519 1.0314411 0.16351794 4281614143
0.74686784 1.0340679 0.16403842 4281679936
0.74619871 1.0332638 0.16326253 4281679936
0.7447921 1.0317254 0.16300015 4281548863
0.74526095 1.0351566 0.1642959 4281613889
0.74459189 1.0343525 0.16352001 4281811268
0.74318725 1.0328128 0.16325732 4281548609
0.74365419 1.0362452 0.16455337 4281810755
0.74298507 1.0354413 0.16377749 4281811011
0.7421174 1.0335376 0.16342875 4281679682
0.74204731 1.037334 0.16481087 4282073670
0.74137825 1.03653 0.16403496 4281942084
0.73970944 1.0376809 0.1655786 4282073414
0.73904115 1.0368779 0.16480371 4282007621
0.73810458 1.0387682 0.16583577 4282073924
0.73743635 1.0379652 0.16506086 4281876545
0.72419626 1.0481918 0.16806445 4281614143
0.72352803 1.0473888 0.16728956 4281679936
0.72312641 1.0489167 0.16823588 4281614143
0.72245818 1.0481137 0.16746099 4281745729
0.72187537 1.050383 0.16823979 4281744959
0.72120661 1.0495795 0.16746439 4281876545
0.72062284 1.0518502 0.16824394 4281613889
0.71995378 1.0510463 0.16746806 4281745475
0.71697545 1.0505726 0.16745752 4281745474
0.71537066 1.0516601 0.16771467 4281745729
0.71392852 1.0538713 0.16755041 4281745727
0.71430081 1.052385 0.16788611 4281745727
0.71232164 1.0549599 0.16780789 4281745213
0.71071482 1.0560486 0.16806537 4281876028
0.70935309 1.0544815 0.16779694 4281810235
0.7086848 1.0536785 0.16702205 4281679162
0.709108 1.0571374 0.16832286 4281810237
0.70750117 1.0582261 0.16858034 4281744444
0.70589429 1.0593148 0.16883782 4281613371
0.70428747 1.0604035 0.16909529 4281350971
0.70268065 1.0614922 0.16935278 4281416251
0.70107383 1.0625809 0.16961026 4281482557
0.699467 1.0636697 0.16986774 4281417021
0.69786012 1.0647584 0.17012523 4281417277
0.69625336 1.0658472 0.17038271 4281548350
0.69464648 1.0669359 0.17064019 4281614141
0.69303966 1.0680245 0.17089766 4281614141
0.69143277 1.0691133 0.17115515 4281745727
0.69036156 1.0698391 0.1713268 4281811520
0.68862396 1.0697824 0.1720006 4281943106
0.68755406 1.0705073 0.17217204 4281943108
0.68648416 1.0712322 0.17234348 4282073924
0.68527246 1.075802 0.17390853 4281745729
0.68460333 1.074998 0.17313264 4281679936
0.68420124 1.0765278 0.17408018 4281745729
0.68353212 1.0757238 0.17330429 4281679936
0.68226576 1.0772206 0.17458686 4281745472
0.68159711 1.0764171 0.17381148 4281679423
0.68033165 1.0779124 0.17509337 4281810752
0.67966336 1.0771095 0.17431848 4281876545
0.67872679 1.0789998 0.17535053 4281810752
0.67805856 1.0781968 0.17457563 4281810752
0.677122 1.0800872 0.17560768 4281744959
0.67645377 1.0792842 0.17483278 4281810752
0.6755172 1.0811745 0.17586483 4281679423
0.67484897 1.0803715 0.17508994 4281679423
0.67391241 1.0822618 0.17612199 4281810239
0.67324418 1.0814588 0.17534709 4281810239
0.67263019 1.0837493 0.17613089 4281876286
0.67196149 1.0829457 0.17535549 4281876286
0.66786587 1.0850811 0.17493154 4281744955
0.66548842 1.0842022 0.17482586 4281810750
0.66482013 1.0833992 0.17405097 4281744957
0.66420084 1.0856909 0.17483394 4281810750
0.6635322 1.0848873 0.17405854 4281810750
0.66237628 1.0875432 0.17492808 4281744703
0.66170716 1.0867393 0.17415221 4281810751
0.66094232 1.0847708 0.17379038 4281876543
0.65933752 1.0858582 0.17404754 4281744959
0.65728879 1.0884756 0.17397711 4281548350
0.65773273 1.0869455 0.17430469 4281548350
0.65621758 1.0892015 0.17414877 4281482557
0.65492469 1.0875924 0.17387265 4281679936
0.65425646 1.0867894 0.17309774 4281745729
0.65461075 1.0902901 0.17440625 4281482813
0.65331995 1.0886797 0.1741298 4281679936
0.65265167 1.0878767 0.17335489 4281745729
0.65300387 1.0913788 0.17466372 4281483070
0.6517151 1.089767 0.17438696 4281679936
0.65104687 1.088964 0.17361204 4281745729
0.65219963 1.0944384 0.17655881 4281744959
0.65144157 1.0928565 0.17520839 4281679422
0.65112841 1.0951643 0.17673045 4281876032
0.65012479 1.0939583 0.17556664 4281679166
0.64952159 1.096253 0.17698795 4281876032
0.64851791 1.095047 0.17582412 4281941312
0.64791471 1.0973418 0.17724542 4281810752
0.64691114 1.0961357 0.1760816 4282006848
0.64630789 1.0984304 0.1775029 4281810752
0.64563882 1.0976264 0.17672703 4281876289
0.64435935 1.0960068 0.17644766 4281810496
0.64470106 1.0995191 0.17776038 4281876543
0.644032 1.0987152 0.1769845 4281810750
0.6427545 1.0970941 0.17670481 4281810750
0.64309424 1.1006079 0.17801787 4281745727
0.64242512 1.0998039 0.177242 4281744957
0.6411497 1.0981814 0.17696197 4281876543
0.64148736 1.1016966 0.17827535 4281745727
0.6408183 1.1008925 0.17749947 4281614141
0.63954496 1.0992687 0.17721912 4281745727
0.6404162 1.1024224 0.17844699 4281745727
0.63894391 1.1013243 0.17721102 4281745727
0.63787323 1.1003733 0.17620517 4281744957
0.63639992 1.1026289 0.17732437 4281811521
0.63566703 1.1006404 0.17695852 4281745727
0.6347931 1.1037177 0.17758185 4281811522
0.63406223 1.1017277 0.17721568 4281745728
0.633394 1.1009247 0.17644076 4281745728
0.63305277 1.1036395 0.1769776 4281745475
0.63151348 1.1027963 0.17589958 4281679937
0.63051593 1.1011894 0.17529757 4281679936
0.62871462 1.100328 0.17454463 4281614143
0.62957215 1.103483 0.17576914 4281811522
0.62890303 1.102679 0.17499325 4281811522
0.62764472 1.1010529 0.17471609 4281744959
0.62633318 1.1025522 0.17472407 4281876031
0.62502033 1.1040524 0.17473233 4281941823
0.62216204 1.1035119 0.17471263 4282073409
0.62149382 1.1027089 0.17393772 4281941823
0.62055719 1.1045992 0.17496978 4281942336
0.61988902 1.1037962 0.17419489 4281941823
0.61957574 1.1065028 0.17536588 4281876545
0.61881918 1.1045212 0.17436633 4281876545
0.61859298 1.1084073 0.17576225 4281810752
0.61778867 1.1114669 0.17765732 4281744957
0.61711955 1.1106629 0.17688143 4281810750
0.61669892 1.10908 0.17626788 4281744957
0.61580861 1.1109561 0.17793567 4281744957
0.61591315 1.1152524 0.17972408 4281679164
0.61524409 1.1144483 0.17894816 4281679164
0.61420387 1.1120435 0.17819282 4281810751
0.61551106 1.1167823 0.18067162 4281744957
0.614842 1.1159782 0.17989573 4281679164
0.61360145 1.1143353 0.17961234 4281744957
0.61390424 1.1178709 0.18092911 4281679421
0.61323512 1.117067 0.18015321 4281548348
0.61253148 1.1150602 0.17978378 4281679934
0.61229736 1.1189597 0.18118659 4281482555
0.61162829 1.1181556 0.1804107 4281548348
0.60978937 1.1188018 0.18154618 4281351226
0.6085481 1.1215 0.18178737 4281350970
0.60787898 1.1206959 0.18101148 4281350971
0.60694128 1.1225888 0.18204485 4281481787
0.60627222 1.1217847 0.18126896 4281613373
0.60504246 1.1201345 0.18098384 4281810752
0.6034376 1.1212218 0.18124099 4281810751
0.60183281 1.1223091 0.18149815 4281810750
0.60078257 1.1242468 0.18126549 4281876030
0.59922564 1.122192 0.18059294 4281810237
0.59917569 1.1253356 0.18152298 4282270018
0.59762084 1.1232793 0.1808501 4282006846
0.59756887 1.1264243 0.18178046 4282335809
0.59596205 1.1275131 0.18203793 4282072637
0.59435523 1.1286017 0.18229543 4282006844
0.59274834 1.1296904 0.1825529 4282072637
0.59114152 1.1307791 0.18281038 4282007102
0.5895347 1.1318679 0.18306786 4281876030
0.58846349 1.1325936 0.18323952 4281810237
0.58585227 1.1312531 0.18273591 4281613371
0.58478242 1.131978 0.18290734 4281679164
0.58404511 1.13433 0.18306443 4281678907
0.58337605 1.133526 0.18228854 4281613115
0.58243829 1.1354188 0.18332191 4281481274
0.58176917 1.1346147 0.18254602 4281547067
0.57950056 1.1336732 0.18243074 4281481787
0.57895762 1.1352624 0.18211345 4281613373
0.5773508 1.136351 0.18237093 4281547580
0.57092345 1.1407059 0.18340085 4281613373
0.56880188 1.1409221 0.18414512 4281744446
0.56719702 1.1420094 0.18440227 4281744702
0.56559223 1.1430968 0.18465944 4281679166
0.56101382 1.149935 0.186755 4281811518
0.5603447 1.1491309 0.1859791 4281548346
0.55940694 1.1510237 0.18701248 4281812290
0.55873787 1.1502197 0.18623659 4281483325
0.55246544 1.1526016 0.18656072 4281483327
0.5511058 1.1541334 0.18657646 4281614656
0.54949898 1.1552222 0.18683395 4281614401
0.54513144 1.1557043 0.18705609 4281613888
0.54446316 1.1549013 0.1862812 4281548351
0.54352659 1.1567917 0.18731326 4281614143
0.54285836 1.1559887 0.18653835 4281679936
0.54058528 1.156273 0.18602058 4281679935
0.5394575 1.1582537 0.18579365 4281679934
0.53718156 1.1585383 0.18527526 4281679934
0.53651243 1.1577344 0.18449937 4281679934
0.53423649 1.1580191 0.18398096 4281943106
0.53356749 1.1572151 0.18320508 4281811520
0.53316534 1.1587448 0.1841526 4282073922
0.53249621 1.1579409 0.18337673 4281876543
0.53008687 1.1570587 0.1819966 4281876030
0.52941769 1.1562546 0.1812207 4281744957
0.52874863 1.1554506 0.18044482 4281744957
0.71992135 1.0529333 0.16752107 4281679682
0.71884882 1.05366 0.16769294 4281679936
0.71759003 1.0551312 0.16769779 4281679935
0.71632987 1.0566032 0.16770288 4281679934
0.71471894 1.0576947 0.16796103 4281810748
0.71310806 1.0587862 0.16821915 4281941821
0.71203411 1.0595137 0.16839124 4281941821
0.69324028 1.0722475 0.17140277 4281614141
0.69096172 1.0725549 0.17216159 4281614143
0.68935281 1.0736451 0.1724194 4281679936
0.68774402 1.0747352 0.1726772 4281745729
0.68667144 1.0754619 0.17284907 4281745729
0.67111897 1.0859995 0.1753412 4281810750
0.67015076 1.0878921 0.17510268 4281744957
0.66689634 1.0869721 0.17469151 4281810750
0.66592276 1.0888659 0.17445216 4281810750
0.66431189 1.0899574 0.17471029 4281744703
0.66106486 1.0890349 0.17429961 4281679166
0.65945601 1.090125 0.17455742 4281548350
0.65784711 1.091215 0.17481522 4281548350
0.6562382 1.0923052 0.17507304 4281548350
0.65462941 1.0933952 0.17533085 4281482814
0.65410948 1.0968699 0.17634512 4281810752
0.65355682 1.0941219 0.17550272 4281613630
0.65303558 1.0975976 0.17651722 4281941825
0.65142471 1.0986891 0.17677535 4281876032
0.64981377 1.0997806 0.17703348 4281810752
0.64920908 1.1020811 0.17845839 4281614656
0.6482029 1.100872 0.17729162 4281810752
0.64706123 1.1035364 0.17880258 4281745729
0.64605504 1.1023273 0.17763579 4281745214
0.64444411 1.1034188 0.17789392 4281745727
0.64283323 1.1045103 0.17815205 4281745727
0.64122236 1.1056018 0.17841019 4281679934
0.63961327 1.1035695 0.17773704 4281745727
0.6401484 1.1063294 0.17858227 4281614143
0.63800436 1.1046596 0.17799485 4281745728
0.63639557 1.1057496 0.17825265 4281679936
0.6362558 1.1077063 0.17832069 4281679684
0.63558501 1.1069002 0.17754285 4281811268
0.63407916 1.1060454 0.17709817 4281745475
0.63224053 1.1047881 0.17626579 4281745475
0.63276637 1.1075494 0.17710917 4281745475
0.63116795 1.1055148 0.17643766 4281745475
0.63102162 1.1074711 0.1765034 4281942338
0.63035089 1.106665 0.17572553 4281942338
0.62855422 1.1053972 0.17553015 4282073667
0.62788427 1.1045922 0.17475328 4282007874
0.62694532 1.1064874 0.17578796 4282139202
0.62627542 1.1056824 0.17501108 4282139202
0.62612289 1.1076388 0.17507504 4282139202
0.62399662 1.1059674 0.17449205 4281941823
0.62238777 1.1070576 0.17474985 4281876543
0.62182713 1.1105494 0.17576338 4281744959
0.62131518 1.1077843 0.17492172 4281876545
0.62243015 1.1132922 0.17788011 4281810750
0.62175941 1.1124862 0.17710224 4281679164
0.62050986 1.1108477 0.17681919 4281744959
0.61983991 1.1100427 0.17604232 4281810752
0.62081933 1.1143837 0.17813824 4281810750
0.62014848 1.1135776 0.17736037 4281679164
0.61943734 1.1115745 0.17699106 4281744957
0.61876732 1.1107695 0.17621419 4281810750
0.6182971 1.1142355 0.17850012 4281744957
0.61773127 1.1177366 0.17951839 4281744957
0.61722451 1.1149622 0.17867199 4281744957
0.61746198 1.1204401 0.18133223 4281810750
0.61679119 1.119634 0.18055439 4281810750
0.61494398 1.1202842 0.18169007 4281679677
0.61333513 1.1213744 0.18194789 4281613884
0.61262929 1.1237146 0.18210663 4281614141
0.6119585 1.1229085 0.18132879 4281614141
0.61101836 1.124806 0.18236476 4281745215
0.61034763 1.124 0.18158692 4281614142
0.60940748 1.1258974 0.18262289 4281876545
0.60873669 1.1250914 0.18184505 4281810752
0.60589468 1.1245271 0.18181381 4281613371
0.60522479 1.1237221 0.18103695 4281744958
0.6042859 1.1256173 0.18207163 4281679164
0.60361588 1.1248122 0.18129475 4281679164
0.60289782 1.1271567 0.18145268 4281810237
0.60128689 1.1282482 0.18171079 4281941566
0.59967601 1.1293397 0.18196893 4282072894
0.59806514 1.1304312 0.18222706 4282138687
0.59624153 1.1310678 0.18336065 4281941822
0.59557164 1.1302627 0.18258378 4282270016
0.59463263 1.1321578 0.18361846 4281941823
0.59396273 1.1313528 0.18284158 4282138430
0.59298366 1.1336744 0.18332176 4281941823
0.59289014 1.1320795 0.18301347 4282138430
0.59162152 1.134797 0.18325959 4281876031
0.59001064 1.1358886 0.18351772 4281744701
0.58792984 1.1341814 0.18292406 4281744957
0.5879299 1.1370882 0.18370357 4281679422
0.58685726 1.1349081 0.18309593 4281744957
0.58591652 1.1380322 0.18373111 4281744446
0.5855152 1.1364305 0.18311055 4281678909
0.58484256 1.1387599 0.18390319 4281810239
0.58417177 1.1379539 0.18312533 4281678653
0.58189708 1.13701 0.18300654 4281415994
0.58122712 1.136205 0.18222968 4281415994
0.58101767 1.1382 0.18230274 4281415994
0.57994378 1.1389277 0.18247482 4281415994
0.57626683 1.1383069 0.18214031 4281481787
0.57465804 1.1393969 0.18239811 4281284921
0.57304913 1.1404871 0.18265593 4281350971
0.5713523 1.1447489 0.18385153 4281612860
0.56974137 1.1458404 0.18410966 4281613373
0.56795353 1.1464574 0.18524086 4281679166
0.56728357 1.1456524 0.18446401 4281679166
0.56634462 1.1475476 0.18549868 4281613628
0.56567472 1.1467426 0.18472181 4281547835
0.56473583 1.1486377 0.18575649 4281482555
0.56406581 1.1478326 0.18497962 4281482555
0.56312692 1.1497278 0.18601429 4281745212
0.56245703 1.1489227 0.18523742 4281548089
0.55830032 1.1529981 0.18678771 4281418559
0.55763042 1.1521931 0.18601084 4281286973
0.55685425 1.1545721 0.18617472 4281221693
0.55524331 1.1556636 0.18643285 4281352768
0.54837984 1.1572019 0.18660896 4281679682
0.54725659 1.1591842 0.18638466 4281679681
0.54564571 1.1602757 0.18664278 4281679936
0.54288328 1.1596671 0.18660551 4281483068
0.54221332 1.158862 0.18582864 4281679935
0.54141772 1.1612495 0.18599227 4281548605
0.5388006 1.161132 0.18508361 4281614398
0.5330295 1.1612606 0.18335237 4281942336
0.53235871 1.1604545 0.18257453 4281876543
0.53122193 1.1587555 0.18228455 4281810237
0.53061402 1.1603761 0.18196875 4281744957
0.52994317 1.1595701 0.18119091 4281810750
0.52954006 1.1611037 0.18214083 4281679164
0.52886927 1.1602978 0.18136299 4281744957
0.71198809 1.0614125 0.16844817 4281876030
0.71131647 1.0606054 0.16766936 4281876030
0.71037513 1.0625054 0.16870663 4281810491
0.70970351 1.0616983 0.16792782 4281744699
0.70876229 1.0635982 0.16896509 4281810750
0.7080906 1.0627911 0.16818626 4281679164
0.70714933 1.0646911 0.16922355 4281679678
0.7064777 1.0638839 0.16844472 4281613629
0.70553637 1.0657839 0.16948201 4281679936
0.70486474 1.0649768 0.16870318 4281548350
0.70392346 1.0668766 0.16974045 4281548607
0.70325184 1.0660696 0.16896163 4281482813
0.7023105 1.0679696 0.16999891 4281548863
0.70163888 1.0671625 0.16922009 4281417277
0.70069754 1.0690624 0.17025737 4281548863
0.70002592 1.0682553 0.16947855 4281548863
0.69908464 1.0701553 0.17051584 4281614143
0.69841301 1.0693482 0.16973701 4281679936
0.69747174 1.0712481 0.1707743 4281548348
0.69680011 1.070441 0.16999547 4281614141
0.69585878 1.072341 0.17103274 4281548348
0.69518715 1.0715339 0.17025393 4281614141
0.66951424 1.0901908 0.17525423 4281876287
0.66884261 1.0893837 0.1744754 4281876286
0.66853827 1.0920893 0.17501748 4281941823
0.66786581 1.0912812 0.17423768 4281941823
0.66333216 1.0918552 0.17447191 4281679166
0.66171926 1.092948 0.17473038 4281614143
0.66010636 1.0940409 0.17498884 4281614143
0.6584934 1.0951337 0.1752473 4281548350
0.65777183 1.0993841 0.1767427 4281810752
0.65709937 1.0985761 0.1759629 4281876545
0.65688044 1.0962266 0.17550574 4281614143
0.65607315 1.0992979 0.17740804 4281876032
0.65540159 1.0984907 0.17662922 4281941825
0.65580517 1.0969552 0.17567806 4281810752
0.65446025 1.1003907 0.1776665 4281876545
0.65378863 1.0995836 0.17688768 4281876545
0.65284729 1.1014835 0.17792495 4281745729
0.65217566 1.1006765 0.17714614 4281745729
0.65177202 1.1022121 0.17809726 4281680449
0.6511004 1.101405 0.17731844 4281680449
0.64639556 1.1058549 0.17895879 4281745729
0.645724 1.1050478 0.17817996 4281745729
0.64478266 1.1069478 0.17921723 4281614143
0.64411104 1.1061407 0.17843843 4281679936
0.64377558 1.1088674 0.17898549 4281548350
0.64310312 1.1080593 0.17820568 4281614143
0.64269888 1.1095968 0.179158 4281614143
0.64202642 1.1087887 0.17837821 4281614143
0.63967586 1.1078836 0.17826264 4281614143
0.63860059 1.1086122 0.17843494 4281745729
0.63812399 1.1101691 0.17811595 4281745477
0.63637489 1.1100905 0.17750865 4281745477
0.63570243 1.1092824 0.17672883 4281942854
0.63529825 1.1108201 0.17768118 4282008647
0.63462579 1.1100119 0.17690136 4281942854
0.63287663 1.1099333 0.17629407 4281942338
0.63053763 1.1090267 0.17618114 4282139204
0.62986594 1.1082196 0.17540228 4282007618
0.6294623 1.1097553 0.17635344 4282139202
0.62879068 1.1089482 0.17557459 4282007616
0.6281423 1.1112635 0.17636506 4282007875
0.6269697 1.11017 0.17543732 4281942337
0.62529683 1.1087912 0.17436156 4281942336
0.62682098 1.1127727 0.17637688 4281876545
0.62552083 1.1111456 0.17545488 4281876545
0.62422156 1.1095197 0.17453386 4281810752
0.62491512 1.1134501 0.17688219 4281876545
0.62410128 1.1121135 0.17589694 4281744959
0.62314624 1.1102483 0.17470616 4281810752
0.62372518 1.1161339 0.17776051 4281744957
0.62153172 1.1163908 0.17851073 4281744957
0.62184024 1.1199385 0.1798377 4281876543
0.62116778 1.1191305 0.17905788 4281810750
0.61991876 1.1174837 0.17876919 4281744957
0.61964905 1.1201906 0.18058528 4281876543
0.61897743 1.1193836 0.17980646 4281876543
0.61766779 1.1240293 0.18139386 4281744957
0.61605287 1.1251235 0.18165265 4281679164
0.61443788 1.1262177 0.18191142 4281614141
0.61282289 1.1273119 0.18217021 4281745215
0.61120796 1.1284062 0.182429 4281876545
0.60835856 1.1278406 0.18239449 4281810751
0.60768694 1.1270336 0.18161567 4281744957
0.60730559 1.1297865 0.18216674 4281876030
0.60663313 1.1289785 0.18138693 4281744957
0.6056906 1.1308807 0.18242553 4281941823
0.60501814 1.1300727 0.18164572 4281941823
0.60407567 1.1319749 0.18268432 4281941823
0.60340321 1.1311669 0.18190449 4281941823
0.60246068 1.1330692 0.18294309 4282007616
0.60178822 1.1322612 0.18216328 4281941821
0.60084575 1.1341634 0.18320188 4282007616
0.60017323 1.1333554 0.18242206 4282007614
0.59923077 1.1352576 0.18346067 4282072896
0.59855831 1.1344496 0.18268085 4282007615
0.59761578 1.1363518 0.18371944 4282072639
0.59694332 1.1355438 0.18293963 4282007616
0.59600085 1.137446 0.18397823 4281876032
0.59532833 1.136638 0.18319841 4282007616
0.59438586 1.1385403 0.18423702 4281876032
0.5937134 1.1377323 0.1834572 4281876032
0.59330922 1.1392698 0.18440953 4281744959
0.59263676 1.1384617 0.18362972 4281744957
0.58819783 1.1389763 0.18385218 4281614143
0.58765775 1.1405716 0.18354 4281679936
0.58658105 1.141301 0.18371253 4281744959
0.58430028 1.140355 0.18359026 4281810239
0.58362865 1.1395479 0.18281139 4281678653
0.58375531 1.1419519 0.18327776 4281810239
0.58308285 1.1411438 0.18249792 4281678653
0.58267868 1.1426814 0.18345028 4281810239
0.58086866 1.1414 0.18261001 4281547324
0.57905954 1.1401196 0.18177067 4281481787
0.57865584 1.1416551 0.18272179 4281350201
0.57798427 1.140848 0.18194297 4281481787
0.57730383 1.1431835 0.18273745 4281284408
0.57663184 1.1423758 0.18195811 4281415994
0.5759505 1.1447127 0.18275326 4281350201
0.57527804 1.1439046 0.18197344 4281481787
0.57381707 1.1449337 0.18349718 4281481530
0.57314545 1.1441265 0.18271835 4281415738
0.57245058 1.1496115 0.18508925 4281613630
0.57177806 1.1488034 0.18430941 4281613630
0.57083565 1.1507057 0.18534802 4281548350
0.57016307 1.1498976 0.1845682 4281548350
0.56922066 1.1517999 0.18560681 4281548604
0.5685482 1.1509918 0.18482697 4281548604
0.56760573 1.1528941 0.1858656 4281614654
0.56693321 1.152086 0.18508576 4281548861
0.56599075 1.1539884 0.18612437 4281618506
0.56531829 1.1531802 0.18534453 4280828990
0.56386983 1.1541977 0.18686406 4281561701
0.56319815 1.1533906 0.18608519 4279061567
0.56225687 1.1552906 0.18712251 4280184162
0.56158525 1.1544834 0.18634365 4278407494
0.56114584 1.157271 0.18690072 4279789399
0.56047338 1.156463 0.18612088 4278605125
0.55499953 1.1576835 0.18651251 4281352768
0.55432796 1.1568764 0.18573369 4281352768
0.55392426 1.1584121 0.18668482 4281549377
0.55325264 1.1576051 0.18590599 4281483584
0.5523113 1.1595049 0.18694328 4281745731
0.55163974 1.1586978 0.18616445 4281614146
0.55118775 1.1614907 0.18672127 4281745475
0.55051529 1.1606827 0.18594146 4281679682
0.54957283 1.162585 0.18698005 4281352256
0.54890031 1.1617769 0.18620023 4281418049
0.54795784 1.1636792 0.18723883 4281352768
0.54728538 1.1628711 0.18645902 4281352768
0.54451638 1.1622622 0.18641944 4281548861
0.54338294 1.1642514 0.18619677 4281548861
0.5406189 1.1636409 0.18615754 4281483070
0.53994727 1.1628338 0.18537872 4281548605
0.5353781 1.1634053 0.18433796 4281614143
0.53470641 1.1625983 0.1835591 4281679936
0.53423321 1.1653961 0.18411265 4281614143
0.53356069 1.164588 0.18333285 4281679936
0.53208607 1.1624805 0.18264933 4281876543
0.53315657 1.1661255 0.18428518 4281679164
0.53248411 1.1653174 0.18350536 4281810750
0.53101081 1.1632091 0.18282163 4281810750
0.66776061 1.0932208 0.1743046 4281941825
0.66668266 1.0939512 0.17447734 4281876032
0.66506565 1.0950469 0.17473646 4281810240
0.66344869 1.0961424 0.17499556 4281744705
0.66183168 1.0972381 0.17525467 4281548096
0.66021466 1.0983336 0.17551377 4281614143
0.65913665 1.099064 0.17568652 4281810752
0.64188874 1.1107504 0.17845035 4281614143
0.64081073 1.1114808 0.17862308 4281745729
0.63764471 1.111728 0.17779736 4281745477
0.63656676 1.1124583 0.1779701 4281745475
0.63432992 1.1139411 0.17704338 4282139717
0.63420439 1.1123604 0.17673497 4282073924
0.6323908 1.1114919 0.17597319 4281942338
0.63325053 1.1146724 0.17721634 4281943108
0.63257635 1.1138623 0.17643455 4282073924
0.63131279 1.1122223 0.17614594 4281942338
0.62998921 1.1137338 0.17615865 4281811265
0.62753987 1.1147786 0.17675053 4281876545
0.6259228 1.1158743 0.17700963 4281876543
0.62623477 1.119426 0.17834054 4281810750
0.62556058 1.1186159 0.17755876 4281810750
0.62369883 1.1192791 0.17869903 4281810750
0.6214748 1.122684 0.18038844 4281810750
0.61985779 1.1237795 0.18064755 4281744957
0.62016213 1.1273413 0.18198304 4281810750
0.619488 1.1265311 0.18120128 4281810750
0.61854315 1.1284382 0.18224248 4281744957
0.61786896 1.1276281 0.18146071 4281744957
0.61015588 1.1303532 0.18220221 4281876544
0.60909969 1.1323029 0.18197609 4282007616
0.60424256 1.1355938 0.1827544 4282007616
0.60262358 1.1366907 0.18301383 4281941823
0.60100454 1.1377877 0.18327326 4281941566
0.5993855 1.1388847 0.1835327 4282072639
0.59776652 1.1399816 0.18379213 4281876032
0.59243697 1.1404607 0.18370847 4281744958
0.59081995 1.1415563 0.18396758 4281680193
0.59007651 1.1439251 0.18413457 4281680449
0.58940232 1.143115 0.18335278 4281745729
0.58899719 1.1446564 0.18430753 4281745729
0.588323 1.1438463 0.18352574 4281876545
0.58603698 1.142899 0.18340097 4281810752
0.58549011 1.1444988 0.18308988 4281744959
0.58441079 1.1452302 0.18326284 4281744959
0.58179301 1.1438766 0.182748 4281744446
0.5815779 1.1458827 0.182827 4281744446
0.58090371 1.1450726 0.18204521 4281678653
0.58049858 1.146614 0.18299994 4281679166
0.57982439 1.1458039 0.18221816 4281415994
0.57672089 1.1491736 0.18360528 4281678909
0.57604671 1.1483635 0.18282351 4281547324
0.57424706 1.1489894 0.18395717 4281744446
0.56714123 1.1569313 0.18603015 4280918671
0.56606185 1.1576625 0.18620311 4280728483
0.56444287 1.1587596 0.18646254 4280466084
0.55969411 1.1588498 0.18628916 4278803014
0.5580771 1.1599454 0.18654826 4278474309
0.55729258 1.1623373 0.18671851 4278540360
0.55661833 1.1615272 0.18593672 4278737739
0.55513388 1.1638 0.18706441 4278668353
0.55445969 1.1629899 0.18628262 4279326284
0.55351484 1.164897 0.18732385 4279649341
0.55284065 1.1640868 0.18654206 4280175685
0.55189586 1.1659939 0.18758328 4280369726
0.55122167 1.1651838 0.18680149 4280567362
0.54682618 1.1656705 0.18701808 4281287231
0.54615283 1.1648614 0.18623729 4281221438
0.54535329 1.1672596 0.18640713 4281221182
0.54224551 1.1662436 0.18597472 4281483070
0.5399552 1.16653 0.18545304 4281548863
0.53894526 1.1653163 0.18428184 4281548350
0.53887719 1.1672604 0.18562579 4281548863
0.53739566 1.1661553 0.18438202 4281548350
0.53584343 1.1680019 0.18392688 4281614143
0.53476411 1.1687332 0.18409984 4281744957
0.53254527 1.1677548 0.18397436 4281613371
0.53153527 1.1665411 0.18280315 4281810750
0.53052533 1.1653274 0.18163197 4281810750
0.53058285 1.1677655 0.18210043 4281810750
0.52990872 1.1669554 0.18131866 4281810750
0.52950352 1.1684968 0.18227339 4281810750
0.52882934 1.1676867 0.18149161 4281744957
0.64127016 1.1142766 0.17820755 4281942084
0.6405952 1.1134654 0.17742479 4281876291
0.64078856 1.1158402 0.1778916 4281679682
0.64011264 1.115028 0.17710787 4281679682
0.63915712 1.1173465 0.1775932 4281745216
0.63903058 1.1157612 0.17728126 4281679936
0.63667804 1.114851 0.17716154 4281876545
0.63619059 1.1164154 0.17684427 4281876545
0.63486284 1.117932 0.17685938 4281679936
0.63276088 1.1162366 0.1768983 4281811522
0.63208586 1.1154255 0.17611556 4281811522
0.63168025 1.1169689 0.17707147 4281811522
0.63100523 1.1161578 0.17628872 4281942338
0.63035202 1.1184851 0.17708606 4281876545
0.62967652 1.1176734 0.17630282 4281942338
0.63028347 1.1216519 0.17739548 4281744957
0.62843806 1.1191655 0.177591 4281876543
0.62776303 1.1183544 0.17680824 4281810750
0.62807518 1.121914 0.17814469 4281744957
0.62804824 1.1250738 0.17909341 4281810750
0.625871 1.1221734 0.17889327 4281810750
0.62618077 1.1257378 0.18023236 4281876543
0.62550491 1.1249256 0.17944863 4281810750
0.62424994 1.1232717 0.17915304 4281876543
0.62397891 1.1259924 0.18097831 4281876545
0.62330395 1.1251812 0.18019556 4281810752
0.6223579 1.1270907 0.18123809 4281810750
0.62168282 1.1262796 0.18045531 4281810750
0.6174947 1.1303858 0.18201736 4281744957
0.61681968 1.1295747 0.1812346 4281810750
0.61587363 1.1314842 0.18227711 4281745471
0.61519861 1.1306731 0.18149436 4281745215
0.61425263 1.1325825 0.18253689 4281876545
0.61357754 1.1317713 0.18175411 4281876545
0.61319602 1.1345356 0.18231304 4281876543
0.61252016 1.1337235 0.18152933 4281876543
0.61179709 1.1360848 0.18169752 4281941823
0.60803938 1.1342553 0.18175063 4282007616
0.60641837 1.1353537 0.1820104 4281941823
0.60637999 1.1397552 0.18256555 4282007616
0.60475492 1.1408563 0.18282595 4282138432
0.60312974 1.1419574 0.18308637 4282138432
0.60150468 1.1430585 0.18334678 4282007105
0.5998795 1.1441597 0.18360719 4281941571
0.59825444 1.1452607 0.1838676 4281876033
0.59615165 1.1423099 0.18365553 4281744702
0.59453058 1.1434082 0.1839153 4281744959
0.59290826 1.1457415 0.18377988 4281614656
0.59344989 1.1441405 0.18408847 4281679936
0.5918262 1.1464746 0.18395327 4281680449
0.59047067 1.14801 0.18397282 4281745985
0.58898628 1.1471287 0.18351632 4281680449
0.58831036 1.1463166 0.18273258 4281876545
0.5880987 1.1483268 0.18281549 4281811265
0.58701527 1.1490608 0.18298909 4281811265
0.58385992 1.1468327 0.18295242 4281614143
0.58383346 1.1493093 0.18215925 4281614143
0.58220828 1.1504103 0.18241966 4281613886
0.57994282 1.1482183 0.18268918 4281613373
0.57926774 1.1474072 0.1819064 4281481787
0.58058321 1.1515114 0.18268007 4281679166
0.57886207 1.1489506 0.18286236 4281613373
0.57818705 1.1481394 0.18207957 4281481787
0.57895803 1.1526126 0.18294048 4281679166
0.576814 1.152836 0.18368275 4281679166
0.57467389 1.1530567 0.1844244 4281548093
0.57305288 1.154155 0.18468416 4281548350
0.57143182 1.1552534 0.18494391 4281548861
0.56981081 1.1563518 0.18520367 4281419074
0.56968069 1.1608059 0.18576682 4281843370
0.56873006 1.157084 0.18537685 4278929729
0.56859732 1.16154 0.18594041 4280400547
0.56697214 1.1626412 0.18620083 4280532647
0.56534708 1.1637422 0.18646124 4280466083
0.56332654 1.1607451 0.18624271 4280925862
0.56220621 1.1627336 0.18602353 4280860581
0.56058306 1.1638333 0.18628362 4280271012
0.55945665 1.1658258 0.18606541 4279351454
0.55783147 1.1669269 0.18632582 4279021463
0.55620641 1.168028 0.18658623 4279080322
0.55458122 1.1691291 0.18684664 4278212426
0.55295616 1.1702303 0.18710704 4279715136
0.55076379 1.1679887 0.18736486 4280434492
0.55008876 1.1671774 0.18658207 4280763457
0.54914272 1.1690869 0.18762462 4280630586
0.5484677 1.1682758 0.18684183 4280827965
0.54800463 1.1710858 0.18740717 4280892217
0.54732871 1.1702737 0.18662341 4281023803
0.54652405 1.1726809 0.18679801 4281154361
0.54455054 1.1696614 0.1865786 4281351741
0.54387558 1.1688503 0.18579586 4281351741
0.54489887 1.1737819 0.18705842 4281219385
0.54340667 1.171661 0.18635985 4281417277
0.54273081 1.1708488 0.18557611 4281417277
0.54157948 1.1691375 0.18527286 4281483070
0.54381549 1.174516 0.18723202 4281153851
0.5420208 1.1732122 0.18638092 4281219898
0.54086 1.1721007 0.18544419 4281351484
0.53962094 1.1698303 0.18514125 4281483070
0.53806806 1.1689798 0.18405372 4281548350
0.53928024 1.173138 0.18483272 4281482557
0.53766239 1.170523 0.18500963 4281548350
0.53698736 1.1697119 0.18422689 4281482557
0.53819674 1.1738721 0.18500632 4281481785
0.53627521 1.1720728 0.18502918 4281613114
0.53559977 1.1712612 0.18424593 4281678908
0.5341509 1.1703652 0.18379045 4281810237
0.53535324 1.174527 0.18456884 4281481783
0.53410578 1.1728566 0.18363282 4281744955
0.53239518 1.1702864 0.18318088 4281679162
0.53172016 1.1694752 0.18239811 4281744955
0.53426987 1.1752611 0.18474245 4281481783
0.53302306 1.1735902 0.18380633 4281876028
0.53131449 1.1710186 0.18335405 4281810235
0.53063947 1.1702075 0.18257129 4281876028
0.63412291 1.1202844 0.17638485 4281679936
0.63249582 1.121387 0.17664559 4281744959
0.63059658 1.1252203 0.17873849 4281876543
0.62991905 1.1244061 0.1779528 4281744957
0.61161321 1.1380826 0.18178041 4281941825
0.61093563 1.1372684 0.18099472 4281941825
0.61052841 1.1388175 0.18195423 4281941825
0.60985082 1.1380033 0.18116854 4281941825
0.60890126 1.1399201 0.18221496 4281941823
0.60822374 1.1391059 0.18142927 4281941823
0.59751117 1.1476375 0.18404013 4281810752
0.59683365 1.1468233 0.18325444 4281876545
0.59588408 1.1487399 0.18430085 4281614401
0.5952065 1.1479257 0.18351516 4281679937
0.5868004 1.1510748 0.1830736 4281811522
0.58612287 1.1502606 0.1822879 4281679936
0.57757992 1.1573222 0.1845511 4281745472
0.57690239 1.156508 0.18376541 4281679423
0.57595271 1.1584246 0.18481185 4281548348
0.57527518 1.1576105 0.18402615 4281548350
0.57432562 1.1595272 0.18507257 4281483069
0.57364804 1.158713 0.18428688 4281548861
0.57269841 1.1606296 0.18533331 4280569412
0.57202089 1.1598154 0.18454762 4281353281
0.57161367 1.1613646 0.18550713 4279731313
0.57093608 1.1605505 0.18472144 4279785038
0.55181754 1.1722311 0.18689077 4280894013
0.55019039 1.1733335 0.18715149 4280958266
0.54076791 1.1752613 0.18553139 4281285178
0.53968322 1.1759963 0.18570521 4281350201
0.5375821 1.17551 0.1847005 4281481272
0.53331149 1.1764938 0.18404344 4281547320
0.53229517 1.1752725 0.18286487 4281876028
0.53161758 1.1744583 0.18207918 4281810237
0.63932735 1.120542 0.17694634 4281876543
0.63864893 1.1197268 0.17615965 4281942336
0.63769817 1.1216459 0.17720741 4281745729
0.63701975 1.1208307 0.17642072 4281811522
0.63665992 1.1235865 0.17698064 4281876545
0.63598067 1.1227703 0.17619298 4281876545
0.63502866 1.1246918 0.17724203 4281810752
0.63434947 1.1238756 0.17645437 4281744959
0.63281065 1.1249574 0.17799059 4281810750
0.63213217 1.1241423 0.17720391 4281744957
0.59479642 1.1507142 0.18408203 4281614656
0.59411794 1.1498989 0.18329534 4281614656
0.59343559 1.1522547 0.18410355 4281680192
0.59275675 1.151439 0.18331636 4281680192
0.59018123 1.1512914 0.18303077 4281811522
0.58881754 1.1528324 0.18305163 4281877315
0.5862444 1.152684 0.18276621 4281745729
0.58556604 1.1518687 0.18197955 4281679936
0.58487833 1.1542258 0.18278693 4281745216
0.58419949 1.1534101 0.18199974 4281679679
0.58351082 1.1557686 0.18280779 4281810752
0.58283156 1.1549524 0.18202013 4281744959
0.58135688 1.1559955 0.1835494 4281810752
0.58067852 1.1551803 0.18276273 4281744959
0.57972771 1.1570994 0.18381046 4281876545
0.57904929 1.1562842 0.1830238 4281810752
0.57929641 1.1599005 0.18437959 4281745216
0.57766521 1.1610057 0.18464099 4281614141
0.57657772 1.1617426 0.18481524 4281614141
0.57222778 1.1646898 0.18551227 4280662436
0.57114035 1.1654266 0.18568653 4280599212
0.56950915 1.1665319 0.18594792 4280730540
0.56506503 1.1670341 0.18616003 4279875745
0.56438667 1.1662189 0.18537335 4280531616
0.56393623 1.1690314 0.18594444 4279482271
0.56325698 1.1682152 0.18515676 4279547289
0.56230503 1.1701367 0.18620582 4279089314
0.56162584 1.1693205 0.18541816 4278759317
0.56067383 1.1712419 0.1864672 4278826914
0.55999458 1.1704257 0.18567954 4278889877
0.55854839 1.1714495 0.18720427 4279152797
0.55786991 1.1706343 0.18641759 4280264852
0.55691916 1.1725534 0.18746532 4280855454
0.5562408 1.1717383 0.18667866 4281832326
0.55553478 1.1741077 0.18748897 4281363303
0.55485594 1.1732919 0.18670179 4280635982
0.55414897 1.1756628 0.18751276 4281222465
0.55346978 1.1748466 0.18672509 4281025599
0.55306149 1.1763996 0.18768701 4281155389
0.55238223 1.1755834 0.18689935 4281090107
0.54904568 1.1753384 0.18693621 4281154619
0.54741645 1.1764423 0.18719728 4281285435
0.54578727 1.1775461 0.18745834 4281285437
0.54338878 1.1782894 0.18638194 4281153594
0.54334438 1.1766516 0.18605901 4281088058
0.54198432 1.1794374 0.18632427 4281350201
0.53940761 1.1780442 0.18579446 4281350199
0.53872919 1.1772289 0.1850078 4281415992
0.54089689 1.1801744 0.18649852 4281350199
0.53879046 1.1796868 0.18549128 4281350199
0.53811127 1.1788706 0.18470363 4281350199
0.53696471 1.1771497 0.18439515 4281415990
0.53770304 1.1804236 0.18566553 4281219383
0.53702384 1.1796074 0.18487789 4281219383
0.53587854 1.1778855 0.18456919 4281350197
0.53661555 1.1811604 0.18583979 4281153590
0.53559673 1.1799362 0.18465832 4281218869
0.59226876 1.1542622 0.18325198 4281811522
0.59096384 1.1570226 0.18351674 4282008901
0.59088093 1.1554013 0.18319334 4281943108
0.58798212 1.1552495 0.18259242 4281745729
0.58661228 1.1567947 0.18261422 4281745472
0.58524126 1.1583407 0.18263625 4281810752
0.58360595 1.1594487 0.18289828 4281810752
0.58144909 1.159676 0.18363927 4281876545
0.57600498 1.1633646 0.18451166 4281549375
0.57491618 1.1641024 0.18468612 4280372033
0.57382733 1.1648401 0.1848606 4280981380
0.56838316 1.1685288 0.18573298 4280730026
0.56725317 1.1705285 0.18551867 4280204710
0.5607121 1.1749605 0.18656681 4279284383
0.55907685 1.1760685 0.18682885 4280789661
0.55744153 1.1771765 0.1870909 4280573787
