# .PCD v0.7 - Point Cloud Data file format
VERSION 0.7
FIELDS x y z rgb
SIZE 4 4 4 4
TYPE F F F U
COUNT 1 1 1 1
WIDTH 1094
HEIGHT 1
VIEWPOINT 0 0 0 1 0 0 0
POINTS 1094
DATA ascii
0.42264813 0.81694949 0.15586548 4286743934
0.4210051 0.81554031 0.15588219 4287466631
0.4202024 0.81420439 0.15537675 4287795853
0.41917554 0.81226808 0.15493506 4287072133
0.41840383 0.8142733 0.15596892 4287269507
0.41771364 0.8132382 0.15543191 4287598985
0.41644493 0.81146163 0.15544561 4287072383
0.41575557 0.81042778 0.15490924 4286874491
0.41510513 0.81222647 0.15527642 4287466626
0.4135552 0.81051356 0.15501036 4289111966
0.41292077 0.80900812 0.15463521 4287993490
0.41164631 0.80755365 0.15434708 4287203721
0.41250229 0.81095868 0.15536319 4287993742
0.41127276 0.80928546 0.15499316 4288848797
0.41027471 0.80795854 0.15480262 4288322710
0.40861568 0.80842453 0.15497909 4287532935
0.40758628 0.80699843 0.15517226 4287203201
0.40511516 0.80624229 0.15552318 4286546043
0.40417904 0.80490541 0.15538841 4287203717
0.40291432 0.80646342 0.15582292 4288322455
0.40204051 0.80432916 0.15583262 4288519577
0.40090463 0.80542624 0.15584323 4287532425
0.39968213 0.80375636 0.15547292 4289243300
0.39869112 0.80243284 0.15528208 4288125332
0.39830178 0.80415845 0.15593001 4287203464
0.39731097 0.80283439 0.15573865 4287598476
0.39596447 0.80197102 0.15516739 4287927438
0.39510331 0.79984492 0.15517826 4288321936
0.39345902 0.80056995 0.15555595 4287597961
0.39332709 0.79915428 0.15537731 4287861131
0.39078084 0.7991879 0.15558313 4289438626
0.38977462 0.797773 0.15577543 4293453022
0.388944 0.80000842 0.15656887 4294901237
0.38805962 0.79825705 0.15621495 4294835960
0.38740629 0.79685211 0.15604083 4294901753
0.38664055 0.79868543 0.15693443 4294770166
0.38565746 0.79736501 0.15674271 4291545798
0.38444588 0.79570103 0.15637259 4294111467
0.3852523 0.79908442 0.1573924 4288914335
0.38426936 0.79776347 0.15720016 4287202955
0.38331813 0.79641342 0.1567463 4290162864
0.3818478 0.79443556 0.1564592 4294901240
0.38113549 0.7962051 0.15682919 4290293421
0.38044488 0.79516935 0.15629186 4294703348
0.379612 0.79305571 0.15630068 4294901752
0.37774462 0.79309648 0.15577482 4294901753
0.37658894 0.79239184 0.15614961 4294901753
0.37582538 0.79127729 0.15593994 4294901753
0.37382269 0.79182726 0.15641923 4294901753
0.37323168 0.79006433 0.15660661 4294901753
0.37231252 0.78868586 0.15589148 4294901754
0.37098965 0.79021424 0.1563269 4294901753
0.37032518 0.78899765 0.15597096 4294901753
0.36912236 0.78719014 0.15604444 4294901753
0.36990076 0.79055804 0.15706366 4294901753
0.36889148 0.78948367 0.15663034 4294901753
0.36803547 0.78753334 0.15677986 4294901754
0.36698383 0.78661394 0.15648864 4294901755
0.36647457 0.78871435 0.15703779 4294901754
0.36549634 0.78731221 0.15722845 4294901753
0.36354735 0.78732091 0.1576111 4294901753
0.36308727 0.78663087 0.1572531 4294901753
0.36169398 0.78813422 0.15859808 4294901753
0.3610644 0.78673857 0.15842126 4294901753
0.35968429 0.7870971 0.15861839 4294901753
0.35869339 0.78581667 0.15868697 4294901754
0.35747531 0.78419304 0.15857689 4294901753
0.3570697 0.78625095 0.15904801 4294901753
0.35612574 0.78437084 0.15895358 4294901753
0.3537527 0.78479069 0.15928312 4294704375
0.35315242 0.78327882 0.15922576 4292796125
0.35124731 0.78432798 0.1599737 4287730329
0.3506974 0.78257871 0.16015461 4287138965
0.34894675 0.78304887 0.16059813 4286612108
0.3483291 0.78165781 0.16042002 4286414728
0.34749624 0.78350687 0.16157956 4286480520
0.3468799 0.7821154 0.16140057 4286283141
0.34606484 0.78393078 0.16230069 4286743433
0.34535521 0.7829299 0.16202423 4286414725
0.34428895 0.78443545 0.1630075 4287138450
0.34342721 0.78297144 0.16300924 4286678156
0.34270006 0.78176653 0.16289166 4286283654
0.34115794 0.78347373 0.1635633 4286876050
0.34052628 0.78245288 0.16436249 4286810257
0.33920962 0.78245145 0.16491912 4287466646
0.33782631 0.78396845 0.16537102 4290625212
0.33714688 0.78284854 0.16521133 4287992218
0.33624923 0.78130037 0.16525087 4287071889
0.33673745 0.78431225 0.16610777 4294901755
0.33578399 0.78300023 0.16591024 4289308840
0.33448485 0.78176922 0.16569911 4287926683
0.3327181 0.78223795 0.16614839 4288124568
0.3325642 0.7803781 0.16607291 4287138453
0.33055818 0.77934283 0.16609317 4286809485
0.23247488 0.7210393 0.16092643 4287137162
0.23069863 0.72034866 0.16112548 4287137930
0.18983665 0.70905519 0.16938634 4294639610
0.18810664 0.70773488 0.16838646 4293652206
0.18660474 0.70675665 0.16756409 4290097336
0.18590464 0.70509017 0.16720015 4288123550
0.18543558 0.70377016 0.16701603 4288057753
0.1867996 0.70836681 0.16877171 4288519076
0.18587881 0.70698583 0.16805527 4288782248
0.18517937 0.70531917 0.16769087 4288387490
0.18377785 0.70430177 0.16724443 4287664019
0.18283747 0.70250469 0.16710265 4288980132
0.18122149 0.70288199 0.16718978 4288322454
0.1803719 0.70078021 0.16676533 4287335303
0.17915918 0.70283866 0.16757883 4287334533
0.17846857 0.70180297 0.1670415 4287334278
0.17734613 0.70048493 0.16713564 4288386968
0.17553809 0.69938487 0.16634534 4287400074
0.17484806 0.69772512 0.16598251 4285887093
0.17421903 0.69938338 0.16690299 4287400584
0.173453 0.69781679 0.16642205 4287664014
0.17284265 0.69606578 0.16617733 4287335048
0.17110896 0.69671124 0.1664167 4287531913
0.17024454 0.69480032 0.16626395 4286743425
0.16919291 0.69388086 0.16597274 4287863193
0.1693763 0.69673324 0.16683096 4287730061
0.16855872 0.69553512 0.16689205 4287072649
0.16767387 0.69421667 0.16643536 4289111976
0.16682459 0.69296002 0.16623814 4286086010
0.1659501 0.69488955 0.16680509 4287729553
0.16526881 0.69323391 0.16644184 4287663504
0.16393045 0.6915794 0.16635793 4287269000
0.16235299 0.69020027 0.16592109 4287860877
0.16334726 0.69362175 0.16689186 4286677378
0.162104 0.69221121 0.16673814 4287269254
0.1608298 0.69053382 0.1663837 4287137921
0.1597883 0.69223797 0.1672907 4287400325
0.15909772 0.69120222 0.16675337 4287005568
0.158668 0.68927795 0.16674313 4287400838
0.15708804 0.6901651 0.16677366 4288321942
0.15617578 0.68849272 0.16683231 4287796113
0.15508454 0.68686354 0.16632657 4286874500
0.15456262 0.68902332 0.16737847 4287598221
0.15361825 0.68718177 0.1669777 4287006341
0.15242018 0.68582755 0.16662514 4289506221
0.1517496 0.68808937 0.16737191 4287466376
0.15100634 0.68659282 0.16729738 4287334790
0.14932725 0.68513548 0.16738082 4286808706
0.14878638 0.68694359 0.16797902 4287400584
0.14779615 0.68546593 0.16784436 4287202947
0.1467388 0.68716395 0.16875309 4287927183
0.14630499 0.68586028 0.16856703 4287005824
0.14564992 0.68750775 0.16948985 4287597192
0.14481248 0.6862545 0.16929026 4288256406
0.14383076 0.68478519 0.16942856 4287729808
0.14291432 0.68669981 0.17000133 4289637808
0.14274387 0.68512833 0.17016397 4288058773
0.14146245 0.6838643 0.16969396 4287335307
0.14077188 0.68612254 0.17044634 4288585119
0.14037555 0.6842075 0.17042938 4287269514
0.13932006 0.68658096 0.17142867 4287795603
0.13862945 0.68554521 0.17089133 4288124824
0.54638469 0.89504677 0.16467552 4281351232
0.54507172 0.89611709 0.16518947 4281219903
0.54400778 0.89412254 0.16494189 4281022781
0.54268497 0.89487684 0.16529685 4280957758
0.54061168 0.89491701 0.1656675 4281220928
0.53921843 0.89354128 0.16650501 4281351746
0.53875721 0.89284956 0.16614614 4281155137
0.5372051 0.89250225 0.16652535 4281154367
0.535653 0.89215493 0.16690458 4281023551
0.53459746 0.89123219 0.1666123 4281089087
0.53327602 0.8912307 0.16717094 4281154367
0.53185695 0.89042276 0.16712469 4281219646
0.53085935 0.89122117 0.16751218 4281220161
0.52947992 0.88949847 0.16739106 4281285696
0.52806085 0.88869053 0.16734482 4281154367
0.52650654 0.88898343 0.16733819 4281153853
0.52430701 0.88832062 0.16728902 4281088059
0.52275205 0.88797265 0.16766894 4281219131
0.5216946 0.88704818 0.16737612 4281088058
0.5202381 0.88488024 0.16760562 4281088060
0.52037078 0.88704675 0.16793579 4281022265
0.51888943 0.88562447 0.16796345 4281153851
0.51759589 0.88421559 0.16774254 4281417025
0.51679885 0.88565791 0.16833606 4281154367
0.5163368 0.88496488 0.16797653 4281285953
0.51526576 0.88336265 0.1678212 4281220159
0.51372445 0.8836925 0.16806364 4281482816
0.51230276 0.88288307 0.1680173 4281285951
0.51074785 0.88253516 0.16839722 4281482816
0.51028574 0.88184214 0.16803768 4281482816
0.50873089 0.88149416 0.16841759 4281351744
0.50789213 0.87956738 0.16857861 4281220159
0.50624239 0.87841356 0.16835292 4281351746
0.50515896 0.88010532 0.16881788 4281482816
0.50480837 0.87891203 0.168685 4281482816
0.50277764 0.87917942 0.16908473 4281482816
0.5014531 0.87783229 0.16991605 4281417023
0.50076121 0.8767947 0.16937773 4281482816
0.50072581 0.87806189 0.17040811 4281417023
0.50003397 0.87702429 0.1698698 4281482816
0.49490523 0.87663174 0.17037827 4281285437
0.49417669 0.87686181 0.17087123 4281417023
0.49228114 0.87578255 0.17080945 4281482817
0.49087122 0.87454987 0.17041902 4281548611
0.49060476 0.8754729 0.17127152 4281482818
0.4901427 0.87477994 0.17091198 4281482818
0.48445073 0.87147754 0.17202669 4281614404
0.48398948 0.87078577 0.17166781 4281548611
0.4824374 0.87043846 0.17204703 4281877576
0.48133758 0.86966926 0.17189658 4282009162
0.48029107 0.86986011 0.17249285 4282009161
0.47864133 0.86870629 0.17226715 4282009162
0.47596729 0.86766654 0.17256683 4281943626
0.47434866 0.86754954 0.17315878 4281943883
0.47301164 0.86760557 0.17242046 4281943883
0.47053254 0.86587167 0.17208131 4281680711
0.46980149 0.86440301 0.17188898 4281153852
0.46805349 0.86413771 0.17174216 4280824627
0.46759143 0.86344475 0.17138262 4281219385
0.46659669 0.8612048 0.17135882 4281022522
0.46544361 0.85947549 0.17046162 4280628023
0.46452111 0.85809195 0.16974387 4280693816
0.46314645 0.85672063 0.16877751 4280561973
0.46211258 0.85551518 0.16802467 4280430644
0.46062478 0.85431933 0.1670219 4280430644
0.45964274 0.85209596 0.16700602 4280561714
0.45895088 0.85105836 0.1664677 4280561714
0.44893664 0.83537948 0.15814689 4279901721
0.44801417 0.833996 0.15742914 4280164893
0.44686106 0.83226663 0.15653193 4281019178
0.44534433 0.83065212 0.15588076 4281545010
0.44465247 0.82961452 0.15534244 4284702560
0.46151352 0.8569749 0.16877322 4280495923
0.46082038 0.85593534 0.16823392 4280561716
0.45989624 0.85454935 0.16751486 4280561714
0.45861453 0.852566 0.1673684 4280561714
0.45760307 0.85148925 0.16693407 4280627507
0.45600474 0.85031956 0.16644894 4280693044
0.44748217 0.83583868 0.15913102 4279375377
0.44609717 0.83445382 0.15815823 4280691751
0.44503242 0.83306849 0.15717795 4280560422
0.4439089 0.83164436 0.15638407 4281283119
0.44287854 0.83016181 0.15599261 4282861122
0.44192442 0.82920271 0.15549333 4286084976
0.45411175 0.85050356 0.1667235 4280627507
0.45382774 0.84891033 0.16646697 4280627509
0.45185539 0.84701848 0.16623645 4280627508
0.45093289 0.845635 0.16551869 4280693300
0.45001042 0.84425151 0.16480091 4280890679
0.44931856 0.84321392 0.16426261 4280824886
0.44678178 0.83940935 0.16228877 4280561966
0.44628942 0.8376807 0.16111223 4279902495
0.44547451 0.83664393 0.16004823 4279375125
0.44452336 0.83502847 0.15915681 4279638553
0.44338614 0.83375663 0.15784827 4280758058
0.44246203 0.83237064 0.1571292 4281152044
0.44121802 0.83094585 0.15651454 4282663740
0.44020897 0.82917964 0.15597662 4284769632
0.43974483 0.82753545 0.15575556 4288060054
0.43801826 0.82626635 0.15547007 4287533971
0.45278785 0.85050213 0.16728318 4280627507
0.4520947 0.84946263 0.16674389 4280627508
0.45078507 0.84777737 0.16662312 4280627508
0.44986174 0.84639269 0.16590472 4280693300
0.44873092 0.84490538 0.16505714 4280824887
0.44799709 0.84321249 0.16482125 4280759095
0.44648036 0.84159791 0.1641701 4280759352
0.44570693 0.84016097 0.16267148 4280628274
0.4447993 0.83918273 0.16159739 4280824625
0.44364411 0.83745027 0.16069852 4280624679
0.44271994 0.83606422 0.15997951 4279440404
0.43740609 0.82809478 0.15584488 4285953658
0.43647423 0.82631421 0.15548769 4286282877
0.4458836 0.8434543 0.16456074 4281087547
0.44519046 0.8424148 0.16402143 4280759095
0.44426635 0.84102881 0.16330238 4280890936
0.44334218 0.83964282 0.16258331 4281219130
0.44241798 0.83825684 0.16186425 4281479991
0.43571791 0.82820839 0.15665103 4285953655
0.4350248 0.82716888 0.15611175 4287007625
0.43408918 0.8249948 0.15611565 4286217849
0.43370092 0.82716745 0.15667142 4287400324
0.43264347 0.82624298 0.1563786 4287796109
0.43167019 0.82448655 0.15628329 4287599244
0.43065673 0.82314777 0.15608974 4288453784
0.43155065 0.82658803 0.15711804 4288322196
0.42999649 0.82515949 0.15690172 4287137408
0.428653 0.82374567 0.15651798 4286873985
0.42827979 0.82222354 0.15635611 4288124566
0.42820978 0.82554567 0.15769809 4287465353
0.42728561 0.82415968 0.15697902 4286677377
0.42606479 0.82226676 0.15665422 4286611070
0.42551753 0.82085294 0.15620314 4286808445
0.42315382 0.82126981 0.15641378 4287073668
0.42247039 0.81945229 0.15659659 4286349432
0.42154789 0.8180688 0.15587883 4287532937
0.42100358 0.82069039 0.1568604 4287862158
0.42008662 0.81891656 0.15650229 4288125073
0.41917095 0.81714457 0.1561452 4287401352
0.41847908 0.81610698 0.15560688 4286677629
0.41875553 0.81930298 0.15670101 4286939775
0.41783139 0.81791699 0.15598196 4288585114
0.41627407 0.81619626 0.15571275 4287664784
0.4156352 0.81468338 0.15533344 4287796106
0.41412416 0.81287646 0.15486321 4288914585
0.41521907 0.81664461 0.15606904 4286875009
0.41398335 0.81496364 0.15569548 4287532680
0.41265091 0.81384712 0.15536536 4287401605
0.41136837 0.81244946 0.15501371 4287203969
0.41105536 0.81091464 0.15459126 4288125074
0.41118509 0.81456274 0.15610979 4287270019
0.40994105 0.81313795 0.15549514 4287993485
0.40915242 0.81123936 0.15507919 4287203971
0.40852466 0.80975986 0.15473802 4287532935
0.406149 0.80990714 0.15518767 4288783005
0.40547657 0.80848926 0.15501116 4288388248
0.40444097 0.81040043 0.15563163 4287466631
0.40376988 0.80898213 0.15545423 4288190611
0.40242395 0.80935949 0.15565202 4287860875
0.40139019 0.80805683 0.15572092 4287663496
0.40012839 0.80640978 0.1556105 4287662986
0.39943653 0.80537212 0.15507218 4288254869
0.40027371 0.80878013 0.15609863 4286873471
0.39901108 0.80713183 0.15598753 4287795347
0.39743409 0.80577528 0.15543374 4287400586
0.39611354 0.8039093 0.15530773 4287401096
0.39494863 0.80260235 0.154754 4287467141
0.39577764 0.80600524 0.15577985 4287532937
0.39451909 0.80435944 0.15566905 4288389013
0.39356205 0.80300385 0.15521327 4287072385
0.39280105 0.8048479 0.15611343 4287664524
0.39210793 0.80380839 0.15557413 4288848283
0.39125019 0.80167669 0.15557903 4289109920
0.39041975 0.80392194 0.15638028 4287991436
0.38972667 0.80288249 0.15584099 4292069571
0.38863382 0.80322754 0.15658043 4294967030
0.38738173 0.80158424 0.15646888 4294901751
0.3863633 0.80028892 0.15653725 4294901751
0.38625252 0.80230165 0.1568473 4294901753
0.38434654 0.80068654 0.15690038 4288256412
0.38301301 0.79907286 0.1565323 4286611333
0.38187537 0.79751909 0.15621905 4287597456
0.38268059 0.80091274 0.15724757 4286151554
0.38146457 0.7992413 0.15687335 4286085505
0.38045186 0.79816341 0.15643868 4285887097
0.37926778 0.79624897 0.15630597 4292070859
0.37834531 0.79486549 0.15558821 4294901496
0.37808672 0.7973299 0.15632279 4287596938
0.37716258 0.79594392 0.15560372 4294374382
0.3765626 0.79417235 0.155788 4294901752
0.37482959 0.79465216 0.15623182 4294900983
0.37418562 0.79324812 0.15605438 4294901753
0.37322637 0.79467005 0.15625049 4294966520
0.3720139 0.79285228 0.15631983 4294901752
0.37134743 0.79163218 0.15596187 4294901753
0.37020907 0.7935611 0.15697749 4294966778
0.36913511 0.79241246 0.15671448 4294901753
0.36796829 0.79074526 0.1566827 4294901753
0.36842835 0.79408777 0.15781647 4293188061
0.36773524 0.79304826 0.15727717 4294967287
0.36650211 0.79141426 0.15716501 4294901753
0.36527205 0.78978229 0.15705328 4294901753
0.36406553 0.79085141 0.15707144 4294901753
0.3634893 0.78908908 0.15725306 4294901753
0.36191529 0.790272 0.15751807 4294901753
0.36082244 0.79061705 0.15825751 4294901753
0.35976142 0.78960538 0.15834628 4294901752
0.35942727 0.78827828 0.15832412 4294901753
0.3586722 0.79003763 0.15870413 4294901751
0.35708335 0.78852129 0.15883692 4294901752
0.35577381 0.78728533 0.15862636 4294901753
0.35480633 0.78596914 0.1584314 4294901755
0.35496703 0.7891103 0.15953067 4294901752
0.35434082 0.78771132 0.15934974 4294901752
0.35371548 0.78631353 0.1591695 4294901753
0.35258573 0.7881844 0.15979752 4292203727
0.35196167 0.78678626 0.15961635 4289308583
0.35020447 0.78725851 0.16006438 4287729817
0.34965342 0.78550273 0.16024056 4287203987
0.34812626 0.78632063 0.16086809 4287203215
0.34659708 0.78713918 0.16149692 4288256411
0.34532535 0.78561324 0.16216257 4287466896
0.34335399 0.78690481 0.162683 4291085761
0.34328842 0.78541899 0.16286984 4287795606
0.34226117 0.78724986 0.16342244 4294770167
0.34172454 0.78549409 0.16359252 4289901490
0.34011093 0.78667045 0.16386905 4294112239
0.33957815 0.78491575 0.16403833 4288848551
0.33901808 0.78701556 0.16460849 4294835960
0.33804184 0.78573316 0.16466928 4294572792
0.33595002 0.78614074 0.16554461 4294835962
0.3346881 0.78472638 0.16550831 4294243568
0.33373338 0.78341174 0.16530918 4288781476
0.33385578 0.78654826 0.16642095 4294901755
0.33320552 0.78533024 0.16605783 4294835962
0.33230969 0.78380162 0.16577485 4292072401
0.33112583 0.78214163 0.16539611 4287401624
0.33239862 0.78700835 0.16740687 4294836219
0.33170554 0.78596884 0.16686758 4294836219
0.33078137 0.78458285 0.16614851 4294638840
0.33003494 0.78248608 0.16613421 4289177259
0.32934311 0.78144848 0.16559589 4287599003
0.3309415 0.78746843 0.16839279 4294901755
0.33024839 0.78642893 0.16785349 4294901755
0.32932425 0.78504294 0.16713443 4294835962
0.32810241 0.7835412 0.16644873 4293190883
0.32971543 0.788275 0.16955848 4294901755
0.32879129 0.78688902 0.16883941 4294901755
0.32786712 0.78550303 0.16812035 4294901755
0.32671189 0.78377056 0.16722149 4294638583
0.32881814 0.79023618 0.17150989 4294901755
0.327894 0.78885013 0.17079084 4294901755
0.32696986 0.78746414 0.17007178 4294901755
0.32604569 0.78607816 0.16935271 4294901755
0.32555246 0.78434634 0.16817409 4294835962
0.32768989 0.79185069 0.17328164 4294836218
0.32717967 0.79008657 0.17343384 4294836218
0.32639384 0.78902054 0.1724627 4294770681
0.32551274 0.78792423 0.17105775 4294770681
0.3245886 0.78653824 0.17033868 4294770681
0.18803649 0.71136993 0.16795486 4294705148
0.18777974 0.7097519 0.16811673 4294639100
0.18730792 0.71160001 0.16844782 4292664540
0.18705252 0.7099815 0.16860878 4289835188
0.18449014 0.70807791 0.16749409 4288914086
0.18378845 0.70640659 0.16712703 4289572016
0.1829451 0.70836359 0.16770279 4287927446
0.18225197 0.70732415 0.16716351 4287532431
0.18177512 0.70536751 0.16714737 4287795856
0.17987069 0.70639819 0.16743036 4288980128
0.17939816 0.70444334 0.16741374 4288387219
0.17649709 0.70335191 0.16695838 4288190357
0.17480169 0.70170802 0.16671935 4288256151
0.17421837 0.70063585 0.16655722 4287203205
0.17501034 0.70373839 0.16735807 4287400843
0.17372189 0.70246738 0.16688548 4288716957
0.17226821 0.70097053 0.16675173 4287664012
0.17137757 0.69964576 0.16629244 4288189587
0.17032471 0.69809711 0.16617243 4288057999
0.1707453 0.70131004 0.16721906 4287268489
0.1696879 0.70038557 0.16692623 4287992980
0.16883446 0.69848025 0.16657095 4288124821
0.16646826 0.69735712 0.16676331 4287138186
0.16446327 0.69784075 0.16710043 4288782753
0.16401869 0.69590139 0.1670844 4287335309
0.16332683 0.69486374 0.16654608 4286742914
0.16212639 0.69676101 0.1672252 4287927444
0.16127874 0.69539112 0.16682404 4287269771
0.16023418 0.69384599 0.16670328 4289177765
0.16075809 0.69691342 0.16792695 4286743170
0.16006498 0.69587392 0.16738766 4286480768
0.15873213 0.69475675 0.16705716 4287598994
0.15722047 0.69273591 0.16697802 4287664017
0.15586771 0.69093865 0.16656084 4287861650
0.15562589 0.69319314 0.16745752 4287335310
0.15477686 0.69128311 0.16729894 4287401101
0.15372136 0.69036031 0.16700666 4287927440
0.15282333 0.69228816 0.16758221 4288650909
0.15214974 0.69063085 0.16721438 4287466632
0.15170804 0.68932128 0.16702701 4287400839
0.15069394 0.69109052 0.16819941 4287926671
0.15002294 0.68943465 0.16783169 4287795086
0.14933108 0.68839705 0.16729337 4288387480
0.1493492 0.69170731 0.16858852 4287334792
0.14827435 0.69010192 0.16820744 4287401100
0.14715496 0.6887604 0.16816901 4288124564
0.1463726 0.69054991 0.1689221 4288716443
0.14544348 0.68949038 0.16880409 4287663498
0.14417814 0.68793064 0.16910253 4287861135
0.14326276 0.68985409 0.16968192 4288058776
0.14308728 0.68827504 0.16984063 4287598225
0.14180565 0.69031417 0.17066783 4287927447
0.1410553 0.68874872 0.17018111 4288716963
0.1395991 0.68920845 0.17116652 4288979620
0.13786943 0.6890403 0.1713146 4289769393
0.13740736 0.68834734 0.17095508 4289637807
0.54433864 0.89906448 0.16471264 4281155139
0.54317349 0.89767879 0.16477074 4281089345
0.54200923 0.89629441 0.16482945 4281023551
0.54099405 0.89782888 0.16558927 4281285953
0.5403685 0.89663678 0.16546144 4281285953
0.53929132 0.89813232 0.16610387 4281417025
0.53823012 0.89720452 0.16581 4281417282
0.53807169 0.89554763 0.16562924 4281285696
0.53650814 0.89466965 0.16585799 4281154367
0.53471893 0.89397401 0.1660585 4280957759
0.53345019 0.89534593 0.16634564 4280957760
0.53256476 0.89339352 0.16650593 4281154111
0.53061742 0.89441621 0.16680072 4281088575
0.52953941 0.89303184 0.16659802 4281220160
0.5288884 0.89119267 0.16629983 4281154367
0.52834713 0.89268619 0.16705108 4281220160
0.52751762 0.89134532 0.16700287 4281219646
0.52485335 0.89030492 0.16702798 4281153595
0.52176803 0.88977319 0.1668292 4281153594
0.51937813 0.88884395 0.16709703 4281022522
0.51831686 0.88791609 0.16680315 4281088572
0.51804948 0.88884252 0.16765873 4281022779
0.51615179 0.88758945 0.16745859 4281219901
0.51530468 0.88539666 0.16741002 4281154365
0.51457477 0.88562715 0.16790389 4281285437
0.51315051 0.88481623 0.16785747 4281417280
0.51054084 0.88421822 0.16780905 4281417278
0.50762391 0.88282692 0.16792992 4281417023
0.50685704 0.88134062 0.16773862 4281351489
0.50636727 0.88326979 0.16814227 4281417023
0.50495231 0.88203269 0.16775043 4281417023
0.50374544 0.88199276 0.16822967 4281351230
0.50231862 0.88118035 0.16818318 4281417023
0.50158739 0.88141125 0.16867793 4281417023
0.49933535 0.87867308 0.16878757 4281548609
0.49734592 0.87867093 0.16962861 4281614403
0.49368644 0.87885427 0.16997615 4281417023
0.48906302 0.87519324 0.1703508 4281417541
0.48833317 0.87542367 0.17084466 4281548613
0.48690888 0.87461275 0.17079823 4281548612
0.48422509 0.87356919 0.17109899 4281614404
0.48154131 0.87252563 0.17139974 4281943368
0.47998351 0.87217712 0.17178036 4282140233
0.47892421 0.87125099 0.171487 4282009161
0.47786489 0.87032479 0.17119366 4282074955
0.47759792 0.8712495 0.17204769 4281943367
0.4765386 0.87032336 0.17175435 4281943626
0.47465783 0.87052327 0.17203651 4281747273
0.47363955 0.87002915 0.1713971 4281813065
0.47130451 0.86777395 0.17192885 4281878089
0.46932167 0.86716187 0.17160361 4280824118
0.46858948 0.86568975 0.17140898 4280757810
0.46594346 0.86446077 0.17019553 4281285437
0.46524778 0.86341745 0.16965427 4280956988
0.46425423 0.86117566 0.16962847 4280694072
0.46309695 0.85944003 0.16872801 4280628023
0.46240258 0.85839862 0.16818774 4280561716
0.46067283 0.85854745 0.16769013 4280561715
0.45997721 0.85750419 0.16714886 4280561714
0.45876801 0.85562962 0.16705884 4280561714
0.45761615 0.85459644 0.16626903 4280561714
0.45618016 0.85237938 0.16600063 4280627507
0.45712352 0.85587943 0.16705586 4280561714
0.45642787 0.85483617 0.16651461 4280627507
0.45509765 0.85293418 0.16656634 4280561714
0.45402604 0.85179889 0.16644806 4280693300
0.44268456 0.83478975 0.15762356 4280428583
0.44152728 0.83305407 0.1567231 4281283118
0.45370126 0.85358942 0.16712061 4280495921
0.45243457 0.8523066 0.16651678 4280627251
0.4505637 0.85065305 0.16609694 4280627509
0.44956115 0.84984779 0.16542649 4280693302
0.44228414 0.83617681 0.15890461 4279178004
0.44158974 0.8351354 0.15836434 4279704348
0.44010606 0.83359957 0.15742484 4280690985
0.43927518 0.83166414 0.15656342 4281545778
0.43834934 0.83027565 0.15584305 4281808441
0.44952554 0.85112196 0.1664625 4280561716
0.44873923 0.84898621 0.16598406 4280627509
0.44764614 0.84778935 0.16548809 4280824629
0.4467198 0.84639996 0.1647673 4280955959
0.44546324 0.8452521 0.1640199 4280955961
0.44389573 0.84323168 0.16387478 4280824375
0.44296992 0.84184319 0.16315441 4281218874
0.44181266 0.84010756 0.16225395 4281481277
0.44131851 0.83837265 0.16107313 4281151027
0.44069088 0.83710009 0.16031934 4280032289
0.43976507 0.83571154 0.15959898 4279440150
0.43847594 0.83459872 0.15848222 4280690985
0.43745589 0.83250654 0.15755926 4281085226
0.43652946 0.83111715 0.15683845 4281347885
0.43553206 0.82969445 0.15657084 4282860612
0.43417454 0.82865238 0.1563109 4285952878
0.44259629 0.8440485 0.16373016 4280955958
0.44166872 0.84265751 0.1630085 4281350458
0.44074124 0.84126645 0.16228682 4281481530
0.43981376 0.83987546 0.16156514 4281152310
0.4388862 0.83848441 0.16084348 4280494382
0.43772683 0.83674568 0.15994139 4279638042
0.43656746 0.83500689 0.15903929 4279703578
0.43563995 0.83361584 0.15831763 4280821798
0.43471247 0.83222485 0.15759595 4281149478
0.43378493 0.83083379 0.15687428 4282530618
0.43285307 0.82904714 0.15651228 4283715144
0.43871692 0.84022176 0.16230728 4281087541
0.43778938 0.83883077 0.1615856 4280692786
0.43663007 0.83709198 0.16068351 4279902243
0.43523875 0.8350054 0.159601 4279637528
0.43454313 0.83396214 0.15905975 4279900700
0.43361562 0.83257115 0.15833807 4280492831
0.43236712 0.83114117 0.15772118 4281149991
0.43118274 0.82971895 0.15708332 4281413158
0.43023214 0.82757366 0.15677926 4285359712
0.43099383 0.83129412 0.15842548 4280559651
0.42976758 0.82978696 0.15773728 4281215782
0.42854095 0.8280825 0.15722866 4284109906
0.42724919 0.82621676 0.15729302 4288255383
0.42632335 0.82482821 0.15657265 4286414206
0.42684704 0.82839376 0.15785818 4282990911
0.42615139 0.8273505 0.15731692 4285293669
0.42522389 0.8259595 0.15659525 4287597195
0.4243027 0.82378542 0.15659307 4287401096
0.42360833 0.82274401 0.1560528 4287928208
0.42256823 0.82502991 0.15697542 4287794826
0.42154455 0.82349437 0.15662858 4286743164
0.41924909 0.82363629 0.1572648 4286546301
0.41889733 0.82191211 0.15661068 4286939775
0.41741288 0.82007796 0.15654105 4287070847
0.41648704 0.81868941 0.15582068 4287466888
0.4169929 0.82224387 0.15710485 4288124819
0.41629726 0.82120055 0.15656358 4287795082
0.41501537 0.81953776 0.15644909 4286545786
0.41408873 0.81814802 0.15572807 4287269767
0.41312218 0.81678426 0.1552697 4287336073
0.41390735 0.82027131 0.15683141 4287927697
0.41265881 0.81884134 0.15621452 4288388247
0.41169396 0.81741226 0.15581566 4287730315
0.41019362 0.81521386 0.15570185 4287664777
0.40952864 0.81702322 0.1560837 4288783005
0.40883303 0.8159799 0.15554243 4288191123
0.40794146 0.81382388 0.15554217 4287467400
0.40701565 0.81243539 0.1548218 4287335814
0.40713874 0.81609392 0.15635151 4287006595
0.40644309 0.81505066 0.15581027 4287335560
0.40517685 0.81326616 0.15581658 4287730060
0.40486151 0.8118549 0.15526922 4287926925
0.40279016 0.81233817 0.15608405 4287532424
0.4017798 0.81081098 0.15573819 4287532167
0.40106577 0.81295979 0.15641287 4288913563
0.39989451 0.81164575 0.15585612 4287466117
0.39888427 0.80972528 0.15575753 4288322716
0.39737526 0.80791557 0.15528405 4287533458
0.39821208 0.81133503 0.15631986 4288651161
0.39721382 0.81000054 0.15612341 4287204999
0.39625156 0.80863881 0.15566482 4287796367
0.39498964 0.80698794 0.15555139 4288783774
0.39383343 0.80808693 0.15557213 4287796109
0.39320046 0.80629224 0.1557519 4287006594
0.39120421 0.80685699 0.15624027 4288321682
0.39042693 0.80573004 0.15602645 4288583314
0.38847935 0.80574638 0.15641467 4294571759
0.38746789 0.80432045 0.15660036 4294836214
0.38652992 0.80576229 0.15680341 4294901753
0.38553873 0.8044312 0.15660667 4292796122
0.38454872 0.80310124 0.15641025 4288387738
0.38413998 0.80483299 0.15707123 4286677124
0.3830989 0.80371898 0.15695705 4286348931
0.38186884 0.80188626 0.15702178 4285757565
0.38117447 0.80084485 0.1564815 4285757565
0.38068885 0.80297589 0.15704519 4285362807
0.37980497 0.80121446 0.15668304 4285362807
0.37892234 0.79945493 0.15632182 4285624950
0.37806702 0.80169892 0.15713258 4285099635
0.3768512 0.80053926 0.15671843 4285230963
0.37613526 0.7983349 0.15641224 4286282106
0.37537944 0.79679167 0.1556887 4292399050
0.37395227 0.79855323 0.15680498 4285822584
0.3732903 0.79726583 0.15650378 4287333258
0.37203252 0.79574746 0.1562698 4292793814
0.37153032 0.79786927 0.15683311 4286216830
0.37052059 0.79657495 0.15689862 4287267209
0.36987835 0.79516697 0.15671724 4292991707
0.36937225 0.79728776 0.15728135 4286019451
0.36810654 0.79567897 0.15742821 4287595915
0.36689636 0.79400748 0.15705143 4294834164
0.36638486 0.79612619 0.15761614 4286084479
0.3657456 0.79471833 0.15743372 4290425783
0.3648757 0.7929647 0.15707184 4294901495
0.36347473 0.79508048 0.15801106 4287202437
0.36301106 0.79323184 0.15788302 4292597200
0.36225861 0.79168993 0.15715909 4294901751
0.36081558 0.79344529 0.15827714 4290556849
0.36005375 0.7923249 0.15806215 4294177003
0.35838571 0.79275829 0.15830615 4292793294
0.35738787 0.79146862 0.15837033 4294703089
0.35639259 0.79018044 0.15843455 4294967287
0.35622767 0.79217678 0.15875439 4291675076
0.35523179 0.79088765 0.15881817 4294966265
0.35337508 0.7902928 0.15980287 4294769392
0.35291216 0.78959858 0.15944268 4294572014
0.35098946 0.78936523 0.16007021 4290822075
0.35052654 0.78867096 0.15971002 4287729548
0.34975353 0.79043221 0.16009913 4294901498
0.34847039 0.78890002 0.16076458 4291480008
0.34673053 0.79054481 0.16146992 4294835960
0.34603998 0.78941613 0.16130804 4294704375
0.34512344 0.78785574 0.16134568 4288848548
0.34563372 0.79089111 0.16221204 4294901753
0.34471768 0.78932899 0.16224818 4294835960
0.34402862 0.78820145 0.16208646 4294309363
0.34287819 0.79007727 0.16272725 4294901753
0.34241444 0.7893818 0.16236642 4294835960
0.34141579 0.79053903 0.16371675 4294901753
0.34079909 0.78913623 0.16352883 4294901753
0.34031898 0.79088533 0.16445887 4294901753
0.33899897 0.78966141 0.16437483 4294901754
0.33776212 0.78807902 0.16464299 4294901755
0.33683223 0.7903024 0.16546883 4294901755
0.33613661 0.78925914 0.16492757 4294901755
0.33524305 0.78761375 0.16533734 4294901755
0.33536983 0.79076415 0.16645832 4294901755
0.33467421 0.78972089 0.16591707 4294901755
0.3341482 0.78795946 0.16607812 4294901755
0.33446932 0.79273236 0.16841687 4294770683
0.33394012 0.79149622 0.16765057 4294770683
0.33329764 0.7898221 0.16725615 4294836219
0.33268842 0.78842038 0.16706583 4294836219
0.3333725 0.79307866 0.169159 4294901755
0.33267686 0.7920354 0.16861774 4294901755
0.33192304 0.78992271 0.16859382 4294901755
0.33122867 0.7888813 0.16805355 4294901755
0.33154449 0.79365587 0.17039588 4294901755
0.33093673 0.79225028 0.17020191 4294901755
0.33046326 0.79038358 0.16958153 4294901755
0.3298938 0.79350489 0.17232375 4294901755
0.3291994 0.79246348 0.17178346 4294901755
0.32918155 0.79608583 0.17334393 4294836218
0.32857591 0.79467803 0.17314729 4294836218
0.32797113 0.79327154 0.17295127 4294836218
0.32771912 0.79654759 0.17433342 4294901755
0.32702351 0.79550433 0.17379217 4294901755
0.18591011 0.71206421 0.16806225 4288978855
0.18498428 0.71067572 0.16734189 4289374127
0.18321572 0.71125245 0.16720358 4289505453
0.18296362 0.70963287 0.1673623 4289177513
0.1810493 0.7100352 0.16782086 4289045155
0.18034656 0.70835817 0.16744956 4288321688
0.17856961 0.70893067 0.16731143 4286281079
0.17832589 0.70731539 0.16746996 4288650910
0.17680769 0.70632708 0.16664645 4288454041
0.17597581 0.70511591 0.16670318 4288651163
0.17516303 0.70691919 0.16714278 4288388248
0.17429887 0.70564747 0.16693977 4287466636
0.17273051 0.70375973 0.16654141 4288256664
0.17147157 0.70233607 0.16638383 4287269767
0.17249665 0.7057966 0.16737279 4289835693
0.17140286 0.70438838 0.16693273 4288059284
0.16994514 0.70267665 0.16685355 4287730065
0.16891176 0.70440269 0.16777453 4288454040
0.16821612 0.70335943 0.16723327 4287598477
0.16775967 0.70140702 0.16721186 4288454299
0.16683385 0.70001853 0.16649149 4287270026
0.1658262 0.70243013 0.16750111 4288519832
0.16537407 0.70047945 0.1674792 4288190614
0.16467969 0.69943804 0.16693893 4286808964
0.16380188 0.70138544 0.16752155 4286940033
0.1628193 0.69928652 0.16726822 4287598480
0.1614569 0.69855672 0.16692321 4288322202
0.16118008 0.70010841 0.16760896 4288453784
0.1601294 0.69855529 0.16748442 4287401097
0.15884918 0.6966567 0.16718026 4286941319
0.15796079 0.69859904 0.16776332 4287269765
0.15750997 0.69727939 0.16757175 4288717217
0.15629931 0.69591296 0.16721465 4287533458
0.15480787 0.69457108 0.1672211 4287270286
0.15321651 0.6954664 0.16726297 4287137934
0.15301867 0.69387543 0.16742161 4288650911
0.15092917 0.69382489 0.16781645 4288321431
0.14956692 0.69431973 0.16856508 4287992976
0.14817695 0.69301206 0.16833103 4287598476
0.14741959 0.69144124 0.16784303 4287532686
0.14803548 0.69499743 0.169082 4287466636
0.14702789 0.6932323 0.16890433 4287927444
0.14632477 0.69178689 0.16858381 4289111718
0.14504808 0.69383585 0.1694168 4287730061
0.14416328 0.69211829 0.16922522 4288651167
0.14357421 0.69097453 0.16909808 4288453789
0.14298819 0.69406527 0.17047325 4289769904
0.14239964 0.69291985 0.17034462 4288190874
0.1417495 0.69155067 0.17033271 4288124826
0.14079456 0.69475788 0.17195749 4289176486
0.14026536 0.69352174 0.17119119 4288979363
0.13979787 0.69193661 0.17079395 4287664016
0.14006335 0.69498879 0.17245224 4287070597
0.13904668 0.69390655 0.17201577 4288123540
0.13833676 0.69239795 0.17178255 4288584604
0.13787147 0.6908142 0.17138541 4288650655
0.13730782 0.69417495 0.17296745 4287663245
0.13674378 0.69299555 0.17259881 4289176741
0.13680929 0.69142967 0.17232856 4288321947
0.54321831 0.89998078 0.16457184 4281154624
0.54184848 0.90097433 0.16459861 4281285953
0.54016 0.90066248 0.16506402 4281285439
0.538728 0.89984715 0.16501735 4281220160
0.5370633 0.89868283 0.16478962 4281154369
0.53632945 0.89891458 0.16528615 4280957760
0.53550136 0.89725941 0.16521052 4281023296
0.53356391 0.89809775 0.16580321 4281023553
0.53249884 0.89716661 0.16550827 4281023553
0.53093266 0.89681613 0.16589093 4281088574
0.52865636 0.89584488 0.16607697 4281285695
0.52705711 0.89369684 0.16638294 4281219644
0.52659255 0.89300013 0.16602145 4281153851
0.52696788 0.89553303 0.1665424 4281482303
0.5257988 0.89445454 0.16662332 4281219131
0.52526146 0.8929987 0.16658418 4281219131
0.52419829 0.89206916 0.16628978 4281153338
0.52232504 0.8921361 0.16668713 4281219131
0.52044994 0.89220273 0.16708492 4281350717
0.51960826 0.89103222 0.16686353 4281153851
0.51774055 0.89168668 0.16736931 4281219644
0.51688159 0.88974035 0.16752325 4281022522
0.51524347 0.88994014 0.1670277 4281219644
0.51408136 0.88886499 0.16710834 4281285435
0.51355815 0.88741583 0.16706859 4281351485
0.51249498 0.88648635 0.1667742 4281483070
0.51307756 0.88935655 0.16747758 4281351484
0.51222706 0.8874144 0.16763131 4281483070
0.51116389 0.88648492 0.16733693 4281417277
0.50914854 0.88679469 0.16708927 4281417021
0.50816107 0.88597989 0.16685469 4281482814
0.50531793 0.88504672 0.1673114 4281417023
0.50291944 0.88411415 0.1675802 4281351230
0.50005537 0.88248342 0.16748685 4281482818
0.49895459 0.88283098 0.16823165 4281548611
0.49739701 0.88113195 0.1688797 4281614404
0.49583361 0.88078213 0.16926166 4281548611
0.49536896 0.88008535 0.16890018 4281482816
0.49200991 0.87903732 0.16948341 4281482818
0.48961568 0.87810636 0.16975172 4281417027
0.48828459 0.87810493 0.17031445 4281417025
0.48722142 0.87717545 0.17002003 4281548613
0.48615825 0.87624592 0.16972561 4281614404
0.48589036 0.87717396 0.17058274 4281614404
0.48482719 0.87624449 0.17028834 4281548868
0.48243293 0.87531352 0.17055665 4281745989
0.48063722 0.87461531 0.17075787 4282074440
0.47920784 0.87380147 0.17071128 4282074697
0.47847527 0.87403274 0.17120694 4282140489
0.47644731 0.87298614 0.17122743 4281746760
0.47496891 0.8735047 0.17091961 4281747272
0.47330424 0.87234038 0.17069186 4281813065
0.47252533 0.87042892 0.17083983 4281943881
0.47257036 0.87257206 0.1711884 4281813065
0.47123286 0.87085944 0.17105755 4281878088
0.47020748 0.87036073 0.17041744 4281680199
0.46794316 0.86896318 0.1702569 4280495408
0.4669416 0.86670947 0.17022491 4281154105
0.46451518 0.86582065 0.169191 4281088059
0.46381706 0.86477363 0.16864778 4280891193
0.46282294 0.86252743 0.16861869 4280759608
0.46166149 0.86078548 0.16771497 4280627766
0.45969096 0.86058402 0.16703868 4280693044
0.45894131 0.85898507 0.16652493 4280561714
0.4583737 0.85718453 0.16622242 4280561714
0.45810577 0.85811263 0.16707957 4280627507
0.45663294 0.85774285 0.16650742 4280496177
0.45538092 0.85602087 0.16655782 4280561713
0.45363176 0.85615981 0.16606051 4280496175
0.45219976 0.85534447 0.16601382 4280561968
0.45122659 0.85311526 0.16598949 4280561714
0.45146587 0.85557622 0.16651037 4280627761
0.45049405 0.85334653 0.16648513 4280561714
0.44885159 0.85260034 0.16590826 4280627509
0.44790316 0.8507908 0.16553482 4280627509
0.44614053 0.85092026 0.16503565 4280627507
0.44544241 0.84987324 0.16449244 4280758837
0.4444814 0.84765387 0.16447084 4280955959
0.4435522 0.84626031 0.16374786 4280955959
0.44247991 0.84742868 0.16378869 4281022006
0.44087619 0.84582734 0.16352232 4280890419
0.43961224 0.8444314 0.16293922 4281284663
0.438636 0.84273559 0.16210645 4281284663
0.43753955 0.84056765 0.16173357 4280956213
0.4366104 0.83917409 0.16101059 4280561201
0.43568119 0.83778059 0.16028762 4280033828
0.43507358 0.83642608 0.15945967 4279440662
0.43382278 0.83499348 0.15884165 4279505944
0.43266132 0.8332516 0.15793793 4280295455
0.43678761 0.84288865 0.16256224 4281153590
0.43644825 0.84132028 0.16212414 4281087798
0.43515372 0.84017605 0.16153073 4280824886
0.43421951 0.83851206 0.16104302 4280298542
0.43328846 0.83698374 0.16043788 4279639582
0.43235776 0.83545607 0.159833 4279177749
0.4311963 0.83371413 0.15892927 4279901980
0.42966852 0.83208787 0.15827332 4280494628
0.42869467 0.83084905 0.15769321 4280953894
0.42767617 0.82976484 0.15725593 4282268470
0.43369085 0.84090894 0.16228783 4281088312
0.43243781 0.83947378 0.16166869 4280562482
0.43124786 0.83788568 0.16117021 4280101160
0.43029588 0.83608657 0.16053683 4279244565
0.42934597 0.83444947 0.15976234 4279178771
0.42820352 0.83294857 0.15890881 4280034337
0.42727429 0.83115697 0.15854163 4280428322
0.42630047 0.82991809 0.15796152 4282005810
0.42504963 0.82848555 0.15734349 4283056962
0.42412043 0.82709199 0.15662052 4288452247
0.4310596 0.83962733 0.16237555 4280956726
0.4297421 0.83818436 0.16177745 4280429354
0.42859823 0.83660203 0.16099419 4279836445
0.42766738 0.83520603 0.1602699 4279178516
0.42673647 0.83380997 0.15954562 4279244309
0.42580712 0.83201683 0.15917738 4279572756
0.42466363 0.83051497 0.15832341 4280690462
0.42399281 0.82894075 0.15770605 4281280807
0.42280903 0.82725304 0.15730511 4284109394
0.4241052 0.83252829 0.15963334 4279374605
0.42317435 0.83113229 0.15890907 4280164119
0.42201081 0.82938719 0.1580037 4280755233
0.4210799 0.82799113 0.15727942 4283516486
0.42016283 0.82581121 0.15727082 4287400583
0.41997913 0.82833868 0.15802422 4282069295
0.41904828 0.82694268 0.15729995 4286017388
0.41776398 0.82507598 0.15736054 4287138950
0.41679472 0.82364142 0.156959 4287336073
0.41554394 0.82220882 0.15634099 4287927697
0.41633433 0.82571024 0.15791194 4287072135
0.41488183 0.82419795 0.15731554 4286875270
0.41383079 0.82278949 0.15672223 4286940549
0.41252005 0.82119256 0.1562679 4288387477
0.41281912 0.82426208 0.15779087 4286676090
0.4117988 0.82317597 0.15735281 4286939261
0.4108232 0.82193482 0.15677163 4286610553
0.41027987 0.8199079 0.15627737 4286874494
0.40929466 0.81848866 0.15600742 4287335559
0.40793222 0.81744277 0.15574655 4287401353
0.41042057 0.82332945 0.15805966 4286215539
0.40972242 0.82228237 0.15751645 4286610812
0.40842462 0.82100219 0.15704043 4288190612
0.40752113 0.8190279 0.15685344 4286217079
0.40655652 0.81759602 0.15645213 4287401353
0.40530571 0.81616342 0.15583412 4287598732
0.40602607 0.82006955 0.15730923 4288256148
0.40509522 0.81867355 0.15658495 4287994003
0.4042069 0.81651038 0.15657759 4287598988
0.40327772 0.81511682 0.15585461 4287006338
0.40469256 0.82006812 0.15787296 4287335558
0.40399441 0.81902111 0.15732975 4287401351
0.40248361 0.81755465 0.15679476 4287269509
0.40154132 0.81537431 0.15625662 4288125845
0.40005261 0.81360477 0.15600926 4287531910
0.39935571 0.8125596 0.15546702 4288716184
0.40106332 0.81762284 0.15745108 4286677373
0.39983264 0.81611025 0.15676039 4286611579
0.39855197 0.81457597 0.15652339 4287335301
0.39753604 0.81309396 0.15612625 4287203715
0.39656675 0.81212366 0.1556244 4287401095
0.39706716 0.81529349 0.15727746 4288453782
0.39581409 0.81385833 0.15665834 4287005568
0.39503551 0.8121748 0.15617914 4287467149
0.39433494 0.81034929 0.15582293 4287467144
0.39267322 0.80918711 0.15559557 4286939773
0.39443585 0.81401181 0.15736519 4288782496
0.3937377 0.8129648 0.15682198 4288192409
0.39225212 0.81119555 0.15657362 4287533447
0.39159694 0.80963069 0.15595712 4288256143
0.39051127 0.80860454 0.15604462 4289373855
0.38934317 0.8097049 0.15607154 4290886065
0.3887156 0.80790633 0.15624586 4293979878
0.38754427 0.80900544 0.15627314 4294901494
0.38625163 0.80738032 0.15641823 4294901753
0.38525817 0.80604583 0.15621975 4293914858
0.38479808 0.80800122 0.15696919 4290559162
0.38385594 0.80644882 0.15668671 4286940294
0.38214749 0.80690706 0.15687792 4285691772
0.38092554 0.8054328 0.15698546 4285231477
0.37918496 0.80446249 0.15617417 4284968049
0.37880796 0.80302173 0.15652904 4285033842
0.37938201 0.80609024 0.15739499 4284639851
0.37785149 0.80446106 0.15673791 4284705645
0.37712249 0.80271041 0.15699363 4284902767
0.37545294 0.80352843 0.15700671 4284902510
0.37461805 0.80139256 0.15699859 4285034094
0.37392113 0.80034739 0.15645635 4285296497
0.37309909 0.80244082 0.15713237 4284968302
0.37214851 0.80101544 0.15673032 4285231474
0.37121591 0.79946822 0.15644804 4285756793
0.37172085 0.80259436 0.15783924 4285034096
0.37070051 0.80150819 0.15740119 4285165426
0.36975104 0.80008322 0.15699899 4285428855
0.36853409 0.79825276 0.15706006 4285822588
0.36696658 0.79919457 0.15712912 4285494393
0.36673841 0.79755455 0.15726128 4286018686
0.3647936 0.79886669 0.15778694 4285428600
0.36457646 0.79697198 0.15771034 4285690486
0.36278078 0.79627377 0.15791157 4286348416
0.36139002 0.79663789 0.15811773 4286216571
0.36075282 0.79522717 0.15793206 4286413435
0.35999644 0.79700148 0.15832454 4286019449
0.3589761 0.79591531 0.15788648 4286413436
0.35799801 0.79458719 0.15768647 4287333765
0.35759786 0.79606885 0.15859333 4286019449
0.35662025 0.79474056 0.15839303 4286281337
0.35536572 0.79313254 0.15853576 4288583320
0.35413423 0.79420501 0.15856718 4286543739
0.35357007 0.79243433 0.15873699 4290950073
0.35196838 0.79362142 0.15901704 4294899953
0.35104185 0.79196739 0.15943392 4294835701
0.34906867 0.79326952 0.15996344 4294901753
0.34851363 0.79150051 0.16013075 4294835960
0.34796789 0.79361707 0.16070826 4294901753
0.34697539 0.7923246 0.16076793 4294901753
0.3452076 0.79271442 0.16160414 4294901753
0.34428805 0.79114777 0.16163817 4294901753
0.34381065 0.79290211 0.16257133 4294901753
0.34318924 0.79149473 0.16238163 4294901753
0.341952 0.79360151 0.1636941 4294901753
0.34130639 0.79231381 0.16338573 4294901753
0.34006542 0.79442227 0.1647011 4294901755
0.33921465 0.79266483 0.16432816 4294901755
0.33859742 0.79125768 0.16413689 4294901755
0.33859771 0.79488569 0.16569418 4294901755
0.33774823 0.79312783 0.16532029 4294901755
0.33713233 0.79172027 0.16512817 4294901755
0.33806086 0.79674518 0.16741154 4294901755
0.33721191 0.79498559 0.16703615 4294901755
0.33636418 0.79322797 0.16666169 4294901755
0.33566731 0.79218286 0.16611946 4294901755
0.33622625 0.79732442 0.16865289 4294770683
0.33574554 0.7954486 0.16802834 4294836219
0.33509865 0.79376817 0.16763063 4294836219
0.3345685 0.79252976 0.16686293 4294901755
0.33512548 0.79767203 0.1693977 4294901755
0.33408859 0.79612386 0.16913621 4294901755
0.33366635 0.79450154 0.16882502 4294901755
0.33227006 0.79639399 0.17039296 4294901755
0.33183503 0.79507977 0.17006414 4294901755
0.3306872 0.79679239 0.1714728 4294901755
0.33000371 0.79565799 0.17130324 4294901755
0.32929036 0.79824698 0.17233026 4294836218
0.32782263 0.79871035 0.17332333 4294901755
0.18393496 0.7135725 0.16740829 4289242022
0.18347035 0.71287572 0.1670468 4288320921
0.18202707 0.71461719 0.16770399 4288057745
0.18132892 0.71357018 0.16716078 4287926160
0.18063079 0.7125231 0.16661757 4289044386
0.17865932 0.71159244 0.16715682 4288649627
0.17778994 0.71031523 0.16695164 4287860622
0.17668954 0.70869076 0.16656603 4288190612
0.17713144 0.71193808 0.16763118 4288518554
0.17665996 0.71060359 0.1674365 4289111714
0.1753628 0.70932436 0.16696097 4288717213
0.17452757 0.70810819 0.16701509 4287401096
0.17296691 0.7083928 0.16722947 4288125076
0.1724996 0.70706165 0.16703558 4288322454
0.17140342 0.70867676 0.16744448 4287203715
0.17070529 0.70762974 0.16690128 4288059281
0.16960734 0.70600575 0.16651502 4288322711
0.16702986 0.70611441 0.16724411 4288322707
0.16604589 0.70466852 0.16717722 4287993487
0.16447614 0.70494914 0.16739219 4289505441
0.16364893 0.70373648 0.16744582 4288124046
0.16259198 0.70217705 0.16731876 4287795596
0.1618951 0.70113188 0.16677652 4288256662
0.1623103 0.70436549 0.16784205 4287926669
0.16125253 0.70280474 0.16771439 4287927439
0.16051935 0.70128512 0.16748211 4289967022
0.15950084 0.70020092 0.16704485 4287137922
0.15838124 0.70180368 0.16745377 4288915105
0.15792663 0.70047837 0.16725925 4288059539
0.15636183 0.7001282 0.16764157 4287006338
0.15519124 0.69860172 0.16713916 4288585117
0.1536492 0.69740951 0.16728705 4288914084
0.15348558 0.69912452 0.16738094 4288387995
0.15168667 0.69842505 0.16758254 4287729039
0.15125495 0.69647855 0.16755536 4287795860
0.14928809 0.69749242 0.16785134 4288914335
0.14872673 0.69601166 0.16825224 4290493367
0.14818731 0.69783998 0.16859615 4288387740
0.14718221 0.69634837 0.16872649 4290032561
0.14633249 0.6950807 0.16852055 4289637805
0.14518909 0.69667423 0.16893214 4288124049
0.14472367 0.6959762 0.16857 4287730060
0.1437214 0.69713765 0.16992521 4288322454
0.14328001 0.69581652 0.16972847 4288454812
0.14262061 0.69748521 0.17067003 4287137930
0.14141294 0.69594526 0.17075753 4288388255
0.14054352 0.69437814 0.17040995 4290164153
0.13919082 0.69633973 0.17210481 4288453532
0.13834593 0.69507205 0.17189689 4289044898
0.13768265 0.69673961 0.1728393 4289243044
0.13724715 0.69541895 0.17264035 4288453271
0.13621627 0.69720262 0.17383148 4287926157
0.13554977 0.69553316 0.1734509 4288453014
0.54166257 0.90286237 0.16484052 4280957758
0.54119635 0.90216315 0.16447774 4281220930
0.53962731 0.90181202 0.16486108 4281088574
0.53819275 0.90099519 0.16481431 4281089088
0.53715187 0.90272689 0.16529317 4280957760
0.53719997 0.90149367 0.16518442 4280957759
0.53578985 0.90006089 0.1650836 4280957760
0.53641534 0.90295941 0.1657915 4280891967
0.53534645 0.90202492 0.1654955 4280957760
0.53410363 0.90051633 0.16548805 4280957761
0.53257096 0.90120518 0.16601443 4281154115
0.53181791 0.89877552 0.16573624 4281154626
0.53001577 0.89807475 0.16593818 4281088574
0.52844673 0.89772367 0.16632156 4281285696
0.52798045 0.89702439 0.16595876 4281350974
0.52589828 0.89689356 0.16606115 4281350459
0.52491802 0.89641327 0.16541676 4281350201
0.52404428 0.89445794 0.16556977 4281219131
0.52464867 0.89734638 0.16627854 4281415740
0.52357978 0.89641184 0.16598254 4281415740
0.52304298 0.89495248 0.16594034 4281415740
0.52093899 0.89512557 0.16607057 4281548097
0.51860207 0.89363682 0.16721727 4281417023
0.51695991 0.89383787 0.16672438 4281154365
0.51570326 0.89306968 0.16709109 4281219899
0.51486117 0.89189631 0.16686751 4281088056
