# .PCD v0.7 - Point Cloud Data file format
VERSION 0.7
FIELDS x y z rgb
SIZE 4 4 4 4
TYPE F F F U
COUNT 1 1 1 1
WIDTH 1095
HEIGHT 1
VIEWPOINT 0 0 0 1 0 0 0
POINTS 1095
DATA ascii
0.45841604 0.88182014 0.15579981 4281152310
0.45807731 0.88072407 0.15551108 4281020723
0.45780915 0.8818751 0.1563032 4281020981
0.45761558 0.87973154 0.15628272 4281152309
0.45629895 0.87900716 0.1560367 4281086772
0.45587835 0.87637329 0.15640208 4281152822
0.45425949 0.87543601 0.15582941 4281218613
0.45355031 0.87293875 0.1561482 4281218614
0.452333 0.87223023 0.15571837 4281152822
0.45131886 0.87111413 0.15622233 4280955445
0.4510361 0.86916584 0.15655278 4280824374
0.45044884 0.86786979 0.15635775 4280824377
0.4491545 0.86921293 0.15668373 4280824117
0.44837028 0.86762685 0.15676993 4280955447
0.44867411 0.86615652 0.15688229 4280956217
0.44692025 0.86783779 0.1577394 4281020726
0.44677091 0.86596239 0.15772873 4281020981
0.4460685 0.86376888 0.15771706 4280955443
0.44533241 0.86572808 0.15791708 4280955189
0.44430169 0.86419171 0.15817599 4280889396
0.44370359 0.86239874 0.15785211 4281218104
0.44362956 0.86024171 0.15784512 4281283640
0.44297698 0.8588016 0.15762843 4281283641
0.44232014 0.86036408 0.15824942 4281217848
0.4413594 0.85880035 0.15807498 4281349434
0.44074282 0.85694271 0.15809757 4281349690
0.43992063 0.85495561 0.15807907 4281349947
0.43180832 0.82870483 0.15116429 4283582524
0.43135765 0.82724643 0.15078013 4288252805
0.43079433 0.82542348 0.15029994 4287069816
0.43023095 0.82360047 0.14981975 4288584082
0.42966759 0.82177752 0.14933954 4287597957
0.42921692 0.82031918 0.14895539 4288190092
0.44003966 0.85869569 0.15850934 4281349434
0.43967697 0.85685194 0.15854511 4281349434
0.43877593 0.85528165 0.15832052 4281349947
0.43767264 0.85327983 0.15808189 4281349946
0.43718809 0.85182428 0.15795361 4281350202
0.43090692 0.82901132 0.15202568 4282529582
0.42992616 0.82750934 0.15144885 4287003250
0.42953068 0.82578516 0.15078937 4288846995
0.42879844 0.82386011 0.15048759 4288715665
0.42845315 0.8219623 0.15004285 4288320908
0.42755198 0.82011461 0.14957069 4287925895
0.42698431 0.81824499 0.14920056 4288451469
0.4268789 0.81678289 0.14899972 4288648845
0.43652534 0.8533802 0.15857597 4281284154
0.43587139 0.85193706 0.15835883 4281284409
0.43580866 0.8497957 0.15835087 4281284151
0.43524465 0.84788305 0.15816773 4281152307
0.43407562 0.84611493 0.15818989 4281283637
0.43351227 0.84429199 0.1577097 4281348918
0.43294889 0.84246898 0.15722951 4281283125
0.43249822 0.84101063 0.15684536 4280954930
0.43159685 0.83809382 0.15607704 4280889137
0.43114617 0.83663547 0.15569289 4280559144
0.43058282 0.83481252 0.1552127 4279703062
0.43047425 0.83273417 0.15424705 4279965713
0.42989841 0.83106476 0.15365893 4280163862
0.42949581 0.82936776 0.1529699 4281280802
0.42831841 0.8278327 0.15209086 4283779396
0.42805734 0.8259784 0.15135798 4288450954
0.42749283 0.82415164 0.15087681 4287989888
0.42692828 0.82232487 0.15039559 4289570464
0.42636377 0.82049805 0.1499144 4288518546
0.42559031 0.81821799 0.14982353 4289111448
0.42543754 0.81623548 0.1495107 4288190088
0.42484397 0.81445342 0.14918882 4288387722
0.42416343 0.81283104 0.14912976 4288255881
0.4232592 0.81111389 0.14897017 4289242778
0.43342733 0.84840262 0.15848713 4281218099
0.43286282 0.8465758 0.15800594 4281349687
0.43229827 0.84474903 0.1575247 4281283382
0.43140608 0.84238064 0.1578079 4281152052
0.43105984 0.84047586 0.15736046 4280954930
0.43027833 0.83873141 0.15684666 4280889137
0.42993248 0.83682799 0.15639953 4280494379
0.42915064 0.83508223 0.15588541 4279835931
0.4288052 0.83318019 0.15543866 4279900177
0.42793021 0.83162361 0.15431181 4280098326
0.42766911 0.82976937 0.15357891 4280295707
0.42303991 0.81478971 0.14963305 4288783257
0.42235619 0.81263745 0.14962772 4288190863
0.42170766 0.81099743 0.14954115 4288255372
0.42153966 0.80944997 0.14920297 4288780947
0.43010357 0.84269428 0.15820585 4281151796
0.42929912 0.84076399 0.15786037 4281020722
0.428671 0.83906817 0.1574951 4280889136
0.42810649 0.83724135 0.15701392 4280757550
0.42754194 0.83541459 0.1565327 4280099873
0.42697743 0.83358777 0.15605152 4279506964
0.42662108 0.83192998 0.1554926 4279769365
0.42084521 0.81273496 0.15031417 4288452749
0.42018539 0.8111046 0.15000694 4288978064
0.41977245 0.80911875 0.14987347 4289242008
0.41952354 0.80754364 0.14963682 4288649359
0.41842824 0.80555457 0.14994533 4288319883
0.41786489 0.80373162 0.14946514 4288451471
0.42689267 0.83735126 0.15802073 4281020721
0.42632812 0.8355245 0.15753952 4280428584
0.42576361 0.83369768 0.15705834 4279639067
0.42542487 0.83260161 0.15676962 4279375894
0.41752142 0.80702662 0.15003283 4288253831
0.41718268 0.80593055 0.14974411 4288714897
0.41642126 0.80397344 0.1501327 4288913303
0.41608059 0.80208302 0.14968809 4288979095
0.41582969 0.80016792 0.1492583 4289440931
0.41398156 0.80052388 0.14986102 4288716181
0.41364124 0.79863352 0.14941615 4288913047
0.41293535 0.79641432 0.14962876 4289703075
0.41220999 0.79449892 0.14922875 4289111448
0.411872 0.79340512 0.14894064 4289175959
0.4116289 0.79704392 0.1496035 4289110678
0.41034648 0.79467911 0.14964075 4288781455
0.41001725 0.79295772 0.1493866 4289702562
0.40937409 0.79132569 0.1492998 4289768614
0.40870297 0.78919452 0.14929524 4289373856
0.4082523 0.78773612 0.14891107 4288847765
0.40788871 0.79099768 0.14947762 4289044120
0.40719718 0.78943282 0.14922841 4289636001
0.40660277 0.78776455 0.14912425 4289703331
0.40630296 0.78581262 0.14912434 4289571486
0.4054988 0.78386265 0.14911056 4289045656
0.40504813 0.7824043 0.1487264 4288387727
0.40611035 0.78928083 0.15000324 4289439646
0.40565875 0.78781939 0.1496183 4289768867
0.404645 0.78569716 0.14968155 4288781713
0.40411916 0.78438157 0.14954247 4288979606
0.40367663 0.78224736 0.14972189 4289111708
0.40285796 0.78035384 0.14940606 4289703332
0.40248311 0.78359997 0.14997363 4289505950
0.40214437 0.7825039 0.14968492 4289505954
0.40106821 0.78053564 0.14953315 4289045657
0.40065402 0.77879578 0.1495641 4289439644
0.40039179 0.77660429 0.14944299 4289505179
0.39954111 0.77465743 0.14912532 4289440929
0.39906439 0.77686185 0.1499297 4289636250
0.39815316 0.77516347 0.14955726 4289109909
0.39741924 0.77307028 0.14975783 4289044371
0.39659742 0.77117598 0.14967202 4290097830
0.39625943 0.77008224 0.1493839 4289834915
0.39685163 0.77547151 0.15027717 4289110163
0.39610648 0.77328449 0.15030237 4289834141
0.39555371 0.77155185 0.1499963 4289505947
0.39456499 0.76983261 0.1499996 4289045653
0.39437211 0.7680043 0.14981239 4289505441
0.39333734 0.77015603 0.15034382 4289571998
0.3927947 0.76784921 0.15038413 4289308574
0.39252234 0.76604795 0.15027288 4289439649
0.39131573 0.76415831 0.15026303 4287859591
0.39097774 0.7630645 0.14997491 4289108886
0.39144605 0.7680738 0.1507732 4288847257
0.39071769 0.76598674 0.15097247 4289635487
0.38988805 0.76431084 0.15077533 4292268230
0.38974884 0.76261359 0.15070999 4293781468
0.38909042 0.76098663 0.1504034 4294901748
0.3883833 0.7642197 0.15122476 4294901753
0.38812155 0.76237953 0.15141112 4294901751
0.38771853 0.76082605 0.15116943 4294901752
0.38659742 0.75896358 0.15133424 4294835959
0.3860341 0.75714058 0.15085405 4293914086
0.38630146 0.76253033 0.1520021 4294901753
0.385584 0.76121813 0.15190089 4294901752
0.38536048 0.75911552 0.1520386 4291808966
0.38512561 0.75722283 0.15160759 4288847513
0.38467491 0.75576448 0.15122342 4288649623
0.38335162 0.75904161 0.15254992 4292334024
0.38322929 0.75751144 0.15221398 4288584083
0.38298544 0.75547916 0.15201251 4288124048
0.38218194 0.75374144 0.15215428 4287795088
0.38168615 0.75769007 0.15317175 4290228906
0.38091698 0.75580668 0.15282236 4288452497
0.38045427 0.75369728 0.15303014 4288123535
0.38029462 0.75166351 0.15258275 4287861133
0.37851053 0.75347066 0.15352714 4288190099
0.37857661 0.75216496 0.15327103 4288124306
0.37801245 0.75033945 0.15279014 4287927440
0.37744832 0.74851394 0.15230931 4287861904
0.37702179 0.74645096 0.1522083 4287927440
0.37622425 0.74453616 0.15216905 4287795854
0.3756609 0.74271321 0.15168886 4287795854
0.37509754 0.7408902 0.15120865 4287861647
0.37453419 0.73906726 0.15072846 4287664269
0.37397081 0.73724425 0.15024827 4287730061
0.37352014 0.7357859 0.14986412 4287993234
0.37477753 0.74441916 0.15187624 4287861647
0.37432587 0.74295771 0.15149128 4287861647
0.37376136 0.74113095 0.15101011 4287795854
0.37319681 0.73930413 0.15052889 4287664268
0.37198773 0.73741055 0.150519 4287795598
0.37173232 0.73563468 0.15040731 4287861394
0.37100908 0.73372316 0.15010539 4288058773
0.37035117 0.73157525 0.15021873 4288058773
0.36990044 0.7301169 0.14983457 4287992980
0.36945665 0.73325795 0.15040304 4288124566
0.36911792 0.73216188 0.15011433 4288124566
0.36841291 0.73011231 0.15031432 4287926930
0.36784893 0.7282874 0.1498336 4287729295
0.36725962 0.72660804 0.15013008 4290030763
0.36733958 0.73044497 0.15063997 4287992210
0.36647156 0.72864568 0.15041044 4287664015
0.36568013 0.72675967 0.15058988 4288781725
0.36506948 0.72455758 0.15080974 4294835445
0.36442861 0.72349119 0.1507728 4294901751
0.36438978 0.72695625 0.15118779 4287795343
0.36368966 0.72491211 0.15138665 4292861143
0.36311528 0.72316217 0.1512938 4294901752
0.36230794 0.72526687 0.1519651 4289636516
0.36159122 0.72325182 0.15211573 4294703860
0.36061168 0.72121322 0.15261233 4294901753
0.36027366 0.72011948 0.1523242 4294901753
0.36022612 0.72357744 0.15274245 4293453278
0.35961685 0.72141635 0.15315279 4294901752
0.35861993 0.71966851 0.15293638 4294901753
0.35790893 0.71830696 0.1525773 4294901753
0.35716337 0.7197234 0.15319401 4294901753
0.35661754 0.71771783 0.1531547 4294901753
0.35647774 0.71616381 0.15307115 4294638581
0.35533002 0.71419555 0.15320334 4291479490
0.35499197 0.71310174 0.15291521 4288978592
0.35440409 0.71584183 0.15339389 4288518043
0.35381553 0.71454304 0.15319845 4288320665
0.35351303 0.7125001 0.15342824 4288057750
0.35298461 0.71117765 0.15305972 4287860371
0.35220936 0.71378708 0.15407498 4287466640
0.35187066 0.71269101 0.15378626 4287335054
0.35144818 0.71039313 0.15373692 4287269261
0.3509832 0.70873344 0.1533924 4287137417
0.35041946 0.70690918 0.15291187 4286940294
0.34985572 0.70508498 0.15243134 4286808708
0.34941462 0.70311248 0.15223555 4286677121
0.34824562 0.70134431 0.15225773 4286479998
0.34768224 0.69952136 0.15177754 4286808963
0.34711888 0.69769841 0.15129733 4287203721
0.34865972 0.70734805 0.15360115 4286874501
0.34809518 0.70552123 0.15312 4286743170
0.34722722 0.70372194 0.15289049 4286611584
0.34666267 0.70189518 0.15240927 4286348665
0.34626368 0.69987434 0.15230806 4286546045
0.34578252 0.69795263 0.15201735 4286808959
0.34521875 0.69612837 0.15153682 4286874753
0.34333888 0.69618684 0.15212798 4286479998
0.34312454 0.69432425 0.15169607 4286743168
0.34281072 0.69247359 0.15125054 4287334282
0.3420755 0.69053978 0.15071881 4292202703
0.34146401 0.68846571 0.15106094 4294901753
0.34101334 0.68700731 0.15067679 4294901753
0.34017035 0.6889621 0.1509583 4294967289
0.33973476 0.68699908 0.15076296 4294901753
0.33872342 0.68496382 0.15075444 4294901753
0.33791932 0.68353409 0.15031983 4294901753
0.33711478 0.68210274 0.14988486 4294901753
0.33612674 0.6829434 0.15108415 4294901754
0.33578804 0.68184733 0.15079543 4294901754
0.33573166 0.67998964 0.1512678 4294901754
0.33390993 0.68014383 0.15174785 4294901754
0.33354148 0.67793918 0.15194747 4294901755
0.3327702 0.67931241 0.15256253 4294901753
0.33219567 0.67817962 0.15266795 4294901753
0.33127385 0.67664528 0.15307038 4294901753
0.33071399 0.6785509 0.1531052 4294901753
0.3299928 0.6767475 0.15330555 4294901754
0.32887882 0.67478734 0.15332425 4294901755
0.32844287 0.67352843 0.15371311 4294901755
0.32746071 0.67508972 0.15390474 4294901753
0.32711071 0.67317325 0.15423565 4294901753
0.32655033 0.67517209 0.15465984 4294901753
0.32586387 0.67306888 0.15468138 4294112494
0.32458636 0.67160571 0.15485162 4286545020
0.32392284 0.66955274 0.15478945 4284374114
0.32360053 0.67168343 0.15520766 4284176989
0.32291654 0.66958308 0.15522875 4283453269
0.32203421 0.66747338 0.15521823 4282597961
0.32161191 0.66552663 0.15502071 4282334789
0.32104853 0.66370368 0.15454052 4282071617
0.3204852 0.66188073 0.15406032 4281742906
0.31992185 0.66005772 0.15358013 4281677111
0.31935847 0.65823478 0.15309994 4281808954
0.32027671 0.66597509 0.15492636 4281612089
0.31971216 0.66414827 0.15444514 4281414710
0.31914765 0.66232151 0.15396397 4281348147
0.3185831 0.66049474 0.15348275 4281282353
0.31798658 0.65847129 0.15347418 4281348402
0.31743902 0.65663719 0.15334071 4281808956
0.31702045 0.65469849 0.15314427 4285229941
0.3159641 0.65329498 0.15326247 4288126628
0.31608492 0.65846741 0.15441555 4280493088
0.31570619 0.65694833 0.15417217 4280821798
0.31550634 0.65483558 0.15440015 4281414199
0.31535849 0.65334982 0.15376483 4287008145
0.31483623 0.66022849 0.15674029 4279702545
0.31490004 0.65879434 0.15619314 4280229402
0.31478879 0.65704793 0.15553404 4280229146
0.31459785 0.65491784 0.15515371 4280953131
0.31439808 0.66613173 0.15961251 4286413948
0.31424993 0.66464287 0.15897584 4286084723
0.31420887 0.66260922 0.15866354 4286414453
0.3141225 0.6606881 0.1579878 4286478966
0.31402028 0.6590929 0.1577172 4287400073
0.3138617 0.66843379 0.16119678 4288650392
0.31382114 0.66639543 0.16088168 4288321686
0.31391084 0.6647082 0.16018623 4287795856
0.31385222 0.67244083 0.16323017 4289372568
0.31392264 0.6704582 0.16308413 4289570205
0.31292886 0.67429876 0.16580467 4290884773
0.31278887 0.67303789 0.16436528 4290950568
0.3127394 0.67792493 0.16687492 4290878590
0.31273115 0.67607546 0.16731371 4291211938
0.3119348 0.68137801 0.16925129 4291274880
0.3120409 0.67988586 0.16978116 4291077499
0.31249869 0.67834526 0.16864347 4290089323
0.31158182 0.68629247 0.17201264 4290218088
0.31170186 0.68365258 0.17058386 4290351731
0.31180844 0.68215573 0.17111094 4291141499
0.31115833 0.6889599 0.17369314 4290283869
0.31093252 0.6882292 0.17350066 4290152539
0.28673899 0.60909164 0.15381657 4294901755
0.28640097 0.60799783 0.15352845 4294901755
0.2859503 0.60653943 0.1531443 4294901755
0.310352 0.69147271 0.17627923 4290483050
0.31046551 0.68989813 0.17607787 4290416741
0.28559807 0.6114437 0.15589988 4294770683
0.28569731 0.60995805 0.15491906 4294836219
0.28468865 0.60835338 0.15368266 4294836219
0.28423572 0.60647315 0.1533909 4294836219
0.28406295 0.60446155 0.15357278 4294836219
0.28300664 0.60305804 0.15369098 4294770683
0.31007573 0.69468087 0.17880145 4289888082
0.30972958 0.69346797 0.17754787 4290283866
0.28499243 0.61149853 0.15640223 4294770683
0.28407106 0.6101504 0.15598685 4294770683
0.28347483 0.60846329 0.15468951 4294770683
0.28270212 0.60646755 0.15428603 4294770683
0.28229526 0.60471797 0.15440398 4294770683
0.28184411 0.60325801 0.15401946 4294770683
0.30837059 0.69709945 0.17999315 4290155630
0.30874321 0.69517893 0.17982402 4290221680
0.30924475 0.6940065 0.17911172 4290218330
0.2824432 0.6103434 0.1570563 4294770683
0.28082848 0.60494709 0.15498562 4294770683
0.28013095 0.6030699 0.15503903 4294770683
0.27930236 0.60114461 0.15562654 4294770683
0.30775025 0.69715047 0.18096086 4290422158
0.30767655 0.69564766 0.1811704 4289964446
0.28081423 0.61095762 0.15803568 4294770686
0.27844319 0.60328519 0.15601464 4294770683
0.27839389 0.60122693 0.15638007 4294770683
0.30646989 0.69913006 0.18387674 4288126630
0.30692771 0.69758946 0.18273903 4289111975
0.30689251 0.69646823 0.18219975 4289047469
0.2792969 0.61109501 0.15929419 4294770686
0.27670011 0.60269183 0.15708071 4294770683
0.27687973 0.60136396 0.15763597 4294770683
0.30577505 0.69956779 0.18464258 4288654002
0.27863306 0.61207432 0.16167699 4294770686
0.27518278 0.60282922 0.15833922 4294770683
0.27490526 0.60129118 0.15823491 4294770683
0.27468958 0.5993135 0.15831563 4294770683
0.30625311 0.71043646 0.18839563 4291745761
0.30648372 0.70916367 0.18757145 4291942365
0.30682889 0.7073431 0.18774784 4291876059
0.30604017 0.70479095 0.18707557 4291678683
0.30539936 0.70372456 0.18703863 4291416282
0.30499095 0.70038837 0.18567193 4289377980
0.27660108 0.61246586 0.1621 4294112759
0.27336916 0.59998876 0.15832444 4294770683
0.27246147 0.5979566 0.15859433 4294770683
0.27168247 0.59627086 0.15867808 4294770683
0.27118257 0.5940091 0.15838213 4294770683
0.27061921 0.59218615 0.15790193 4294770683
0.27028123 0.59109235 0.15761381 4294770683
0.26937985 0.58817559 0.15684551 4294770683
0.26892915 0.58671725 0.15646134 4294770683
0.26831117 0.58499837 0.155165 4294770682
0.26805776 0.58314186 0.1553366 4291413956
0.26712644 0.58088374 0.15492474 4287334279
0.26667574 0.57942533 0.15454057 4286545275
0.30564618 0.71049142 0.18889904 4291745763
0.30542037 0.70976073 0.18870656 4291614177
0.27605549 0.6138069 0.16457294 4291087837
0.26974192 0.5943079 0.15829483 4294770683
0.26929301 0.59223586 0.15851057 4294770683
0.26857665 0.59057736 0.15800555 4294770683
0.26801273 0.58875251 0.15752485 4294770683
0.26750085 0.58708811 0.15694775 4294770683
0.26691926 0.58517402 0.15588881 4294770683
0.26635474 0.5833472 0.15540764 4292401106
0.26585764 0.58109254 0.15511301 4287925126
0.26503307 0.57950634 0.1550484 4293059037
0.26459825 0.57773948 0.15531628 4294835962
0.30416414 0.71175236 0.19069797 4292141289
0.27454138 0.61394399 0.16582884 4291943153
0.26785061 0.59222567 0.15872417 4294770683
0.26739904 0.59076422 0.15833925 4294770683
0.26683447 0.58893746 0.15785803 4294770683
0.26638284 0.58747602 0.15747306 4294835962
0.2638036 0.57963461 0.15552977 4294835960
0.26302597 0.57779723 0.15579627 4294835961
0.26209494 0.57615709 0.15579432 4294901754
0.27291718 0.61467731 0.16610503 4292337909
0.26162651 0.57814163 0.15648106 4294901755
0.26051626 0.57635009 0.15659727 4294901755
0.30636361 0.72799897 0.19855592 4283720305
0.30580026 0.72617602 0.19807573 4283260273
0.30512005 0.72496217 0.19731139 4284574592
0.25912833 0.5761143 0.15741386 4294901755
0.25892919 0.57450479 0.15812357 4294901755
0.30545515 0.72808123 0.19930945 4282866799
0.30386749 0.7249245 0.19759025 4289049027
0.26957914 0.61497957 0.16887379 4286023842
0.25736603 0.57447159 0.15878473 4294901755
0.25591031 0.57377666 0.1587538 4294901755
0.30411428 0.73278934 0.2013732 4283523187
0.30187777 0.72053444 0.19829735 4290891219
0.26775837 0.61514437 0.170384 4285035922
0.25572512 0.57279557 0.15949686 4294901755
0.25492695 0.57086748 0.15907918 4294901755
0.25371939 0.56939292 0.15916602 4294901755
0.30320391 0.73287177 0.20212832 4283062895
0.26687565 0.61482543 0.17228192 4284508550
0.25231829 0.56921935 0.15926462 4294901755
0.25175434 0.56760561 0.15998465 4294901755
0.25096434 0.56585604 0.15999265 4294901755
0.26385579 0.61361986 0.17267156 4290230723
0.2501778 0.5673418 0.16053978 4294901755
0.24968813 0.56575698 0.16048689 4294901755
0.24907704 0.56377816 0.16042113 4294901755
0.26367009 0.61503363 0.17421561 4285428881
0.26333171 0.61393869 0.17392717 4290099658
0.24804173 0.56547517 0.16072303 4294901755
0.24747901 0.56390506 0.16071202 4294901755
0.24710853 0.56211478 0.16066697 4294901755
0.24647045 0.56058496 0.16057591 4294901755
0.24545734 0.55810916 0.16039158 4294901755
0.24500667 0.55665082 0.16000743 4294901755
0.26048249 0.61279857 0.17489989 4294770684
0.24509192 0.56198645 0.16127086 4294901755
0.24464026 0.560525 0.16088589 4294901755
0.2443537 0.5582391 0.16086636 4294901755
0.24369203 0.55643767 0.16024618 4294901755
0.24342218 0.55454552 0.16018473 4294901755
0.24285881 0.55272251 0.15970454 4294177775
0.25984913 0.61275327 0.17605704 4294770684
0.24350409 0.55987674 0.16144854 4294901755
0.24265376 0.55863917 0.16148925 4294901755
0.24199393 0.5570088 0.16118202 4294901755
0.24155208 0.5549987 0.16070729 4294901755
0.24090862 0.55323827 0.160468 4294243824
0.24043664 0.5511983 0.16014838 4291875532
0.23991516 0.54924113 0.16025122 4282532161
0.23878303 0.55166584 0.16099694 4291809227
0.23861733 0.54975712 0.16107337 4286875010
0.23825318 0.54789239 0.16087177 4281348917
0.23730816 0.54992145 0.16127089 4287006338
0.2364327 0.54793411 0.16153814 4281217330
0.23567161 0.54627323 0.16162044 4280889134
0.23424539 0.54606742 0.16172245 4280823340
0.23368116 0.5442121 0.16191033 4280822827
0.23311935 0.54236048 0.16209812 4280888363
0.23278135 0.54126674 0.16181001 4280888363
0.22962657 0.53105807 0.15912092 4280823084
0.22906321 0.52923512 0.15864074 4280757549
0.22849984 0.52741212 0.15816054 4280954930
0.22793651 0.52558917 0.15768035 4280889137
0.22500706 0.5161097 0.15518333 4280757549
0.22421834 0.51355755 0.15451106 4280560168
0.23246706 0.5443505 0.16224809 4280953386
0.23190464 0.54249698 0.1624354 4280756777
0.23093653 0.54070872 0.16228996 4280690984
0.23022506 0.5386678 0.16195239 4280625448
0.22943917 0.53694665 0.16142455 4280691754
0.22909737 0.53501886 0.16099116 4280757801
0.22831105 0.53329611 0.16046295 4280822826
0.22821179 0.53141725 0.1596299 4280757291
0.22747232 0.52967644 0.15925597 4280823341
0.22723666 0.52762562 0.15891662 4280889136
0.22641936 0.52589476 0.15843774 4280823342
0.22571443 0.52407187 0.15810758 4280889135
0.22492667 0.52234459 0.15757817 4280889133
0.22441822 0.52028841 0.15707377 4280888620
0.22385429 0.51846355 0.15659307 4280757291
0.22356813 0.51652014 0.15600574 4280625963
0.22292091 0.51442242 0.15550935 4280691754
0.22224677 0.51283479 0.15541722 4280362789
0.22170778 0.51097387 0.15517226 4280231203
0.2294043 0.54049647 0.16269967 4280559398
0.22895268 0.53903502 0.1623147 4280625191
0.22838816 0.53720826 0.16183352 4280756777
0.22782362 0.5353815 0.16135231 4280888616
0.2272591 0.53355467 0.16087113 4280822570
0.22669455 0.53172791 0.16038992 4280756777
0.22613004 0.52990109 0.15990873 4280888363
0.22556549 0.52807432 0.15942751 4280954156
0.22500098 0.5262475 0.15894634 4280822570
0.22413296 0.52444822 0.15871681 4280888363
0.22356841 0.52262145 0.15823559 4280888363
0.22289096 0.52042931 0.15765816 4280756777
0.22232644 0.51860249 0.15717699 4280625448
0.22186776 0.51691639 0.15668394 4280428583
0.22119738 0.51494896 0.15621458 4280560169
0.22084428 0.51310676 0.15601569 4280362789
0.22048551 0.51089489 0.15586229 4280165410
0.21983804 0.50945657 0.15587039 4280493605
0.22322257 0.52453065 0.15947193 4280690984
0.22265805 0.52270389 0.15899076 4280756777
0.22198063 0.52051175 0.15841332 4280559398
0.22141609 0.51868492 0.1579321 4280559398
0.22096443 0.51722354 0.15754713 4280428070
0.22028701 0.5150314 0.1569697 4280428584
0.21972249 0.51320457 0.15648852 4280362534
0.21910273 0.51116383 0.15648934 4280296226
0.21819727 0.5094443 0.15632954 4280362019
0.21737529 0.50757188 0.15630046 4280427812
0.21678169 0.50561059 0.15632103 4280427812
0.21644372 0.50451678 0.15603292 4280427812
0.21654683 0.50898516 0.15684386 4280493607
0.21610463 0.50752902 0.15679601 4280296227
0.21549241 0.5059365 0.15667576 4280296226
0.21505296 0.5040732 0.15655667 4280296481
0.21455637 0.5024389 0.1564614 4280428065
0.21390048 0.50546896 0.15713997 4280230433
0.21356174 0.50437289 0.15685126 4280230432
0.21283849 0.50256836 0.15680963 4280230687
0.21246012 0.50058329 0.1567753 4280362272
0.21150005 0.49859288 0.15691204 4280033307
0.20979157 0.49898669 0.15708259 4280033053
0.20957874 0.49688271 0.15724921 4280098844
0.20855637 0.49511144 0.15745874 4280163870
0.20821837 0.49401766 0.15717062 4280164640
0.20841721 0.49882942 0.15808018 4280033054
0.20807329 0.4969987 0.15787987 4280229917
0.20725675 0.49542421 0.15781489 4280229663
0.20698948 0.49356675 0.15790568 4280164127
0.20621836 0.49157518 0.15750305 4280230433
0.20577084 0.49531326 0.15837629 4280164127
0.20528409 0.49341309 0.15848078 4280098847
0.20483078 0.49140516 0.1581627 4280164640
0.20361447 0.48991674 0.15824936 4280230433
0.20316203 0.48772916 0.15795371 4280295968
0.20259868 0.48590618 0.15747352 4280295709
0.20203532 0.48408321 0.15699331 4280164637
0.20147198 0.48226026 0.15651312 4280362019
0.20102128 0.48080185 0.15612897 4280099617
0.20225646 0.48999774 0.1584429 4280164640
0.20169194 0.48817095 0.15796173 4280295713
0.2011274 0.48634419 0.15748051 4280295709
0.2009014 0.4841615 0.15746576 4280361502
0.20056349 0.48234251 0.15726666 4280230686
0.20000014 0.48051953 0.15678647 4280164896
0.19943678 0.47869655 0.15630628 4279902238
0.19909878 0.47760278 0.15601815 4279968288
0.20066866 0.48788804 0.1586206 4280230433
0.20021705 0.48642659 0.15823567 4280295709
0.19965251 0.48459983 0.15775445 4280295709
0.19863349 0.4825137 0.1574983 4280164639
0.19791651 0.4810012 0.15729544 4280164640
0.19742782 0.47917727 0.15690818 4279836702
0.19705482 0.47699839 0.15670671 4280034081
0.19679594 0.47518769 0.15660177 4280164898
0.19604243 0.47375676 0.15646881 4280427812
0.19527017 0.477485 0.15759158 4280164896
0.19470562 0.47565824 0.15711036 4280230433
0.19471847 0.4735018 0.15737748 4280493091
0.1941551 0.47167885 0.15689729 4280362019
0.19356944 0.47500995 0.15767302 4280296226
0.19262379 0.47396883 0.15788768 4280362019
0.19223574 0.47179362 0.1576618 4280362019
0.19186635 0.46971229 0.15769663 4280427811
0.19121145 0.46819744 0.15744399 4280428067
0.19073252 0.47188658 0.15831709 4280362019
0.18986452 0.47008729 0.15808757 4280427299
0.18965387 0.46792698 0.15807205 4280493862
0.1890213 0.46614695 0.15812364 4280625191
0.18845794 0.46432397 0.15764344 4280362533
0.18895417 0.47016969 0.15884273 4280428069
0.18821968 0.46815541 0.15867341 4280493864
0.18735464 0.46637687 0.15856926 4280428328
0.18717377 0.46450451 0.15839921 4280362791
0.18596263 0.46282774 0.15802202 4280231205
0.18569894 0.46080503 0.15779856 4280296998
0.18525374 0.45899215 0.15745875 4280296996
0.18459532 0.45736519 0.15715218 4280099617
0.18382421 0.45537364 0.15674955 4280099617
0.18348621 0.45427987 0.15646143 4280033824
0.18589143 0.46631563 0.15929429 4280428584
0.1854398 0.46485421 0.15890934 4280297254
0.18458734 0.46290323 0.158591 4280100132
0.18428464 0.46102855 0.15842736 4280165924
0.18362167 0.45928705 0.15806641 4280231716
0.18329903 0.45739168 0.15763442 4280034337
0.18263671 0.45565137 0.15727358 4280034337
0.18225731 0.45382893 0.15719649 4280033824
0.18159887 0.45220196 0.15688992 4280033824
0.18354852 0.46277198 0.15933871 4280034337
0.18309692 0.46131054 0.15895376 4280034337
0.18253238 0.45948374 0.15847258 4280165923
0.18196784 0.45765698 0.15799136 4280165923
0.18125878 0.45572084 0.15784159 4280165410
0.18090139 0.45371717 0.15774679 4280164640
0.17978737 0.45216841 0.15760885 4280230433
0.17922527 0.45025834 0.15722036 4280099361
0.17839672 0.44838318 0.15692158 4280296228
0.17786652 0.44616836 0.15676433 4280427300
0.17845351 0.45234147 0.15805802 4280296226
0.17788896 0.4505147 0.15757678 4280230433
0.17720719 0.44852835 0.15749748 4280296226
0.17667407 0.4464384 0.15728842 4280230433
0.17609185 0.44445506 0.15728885 4280493346
0.17564118 0.44299671 0.1569047 4280756260
0.17467804 0.44517171 0.1573917 4280296481
0.17385992 0.44302946 0.15725361 4280690467
0.17352165 0.44110551 0.15721886 4280689956
0.17258486 0.43915069 0.15735534 4280690472
0.17202148 0.43732768 0.15687515 4280493607
0.17161533 0.44131762 0.15784331 4280886819
0.17105077 0.43949088 0.15736209 4280690472
0.17086664 0.4373734 0.1573475 4280559401
0.16915952 0.43740863 0.15779148 4280625194
0.1689337 0.4366779 0.157599 4280559401
0.46179229 0.89097506 0.15641519 4280693815
0.46117568 0.88983947 0.15605085 4280890936
0.45972675 0.88859004 0.15546066 4280956213
0.45940915 0.88629806 0.15591815 4280890166
0.45884347 0.88446748 0.15543595 4280955702
0.45945746 0.88974583 0.15625609 4281153592
0.45911726 0.88864523 0.15596618 4280956213
0.458801 0.88635314 0.15642262 4281087029
0.45793495 0.88437462 0.15575913 4280955189
0.45694822 0.8823809 0.15586624 4280955189
0.45600641 0.88098335 0.15521398 4281020980
0.45520863 0.87877476 0.1554063 4281152822
0.45486921 0.87767643 0.15511698 4281087029
0.45479462 0.88073933 0.15535659 4280955188
0.45460045 0.87882984 0.15591075 4281021236
0.4536562 0.87742859 0.15525854 4281087028
0.45236793 0.87528509 0.15518439 4281218357
0.45164827 0.87461269 0.1547247 4281218615
0.4512656 0.87540162 0.15542349 4281152820
0.4509452 0.8737191 0.15550758 4281087029
0.45001802 0.8720938 0.15609621 4281020982
0.44906166 0.87333828 0.15610743 4281086774
0.44857928 0.87186378 0.1562869 4280889396
0.44818243 0.87063718 0.15634242 4280955189
0.44708455 0.87200874 0.15698463 4280823603
0.44666445 0.87052977 0.15711303 4280889140
0.4457325 0.8683418 0.15755765 4281086263
0.4448806 0.86994541 0.15766858 4280823605
0.44462392 0.86845189 0.15779836 4280889396
0.44389397 0.86688256 0.15780491 4280823859
0.44209185 0.86512905 0.15800497 4281152567
0.4414869 0.86358768 0.15756963 4281283896
0.44073284 0.86126727 0.15789892 4281218102
0.4395304 0.86175543 0.15772061 4281152055
0.43916598 0.85990393 0.15775381 4281349434
0.43813017 0.85803872 0.15775925 4281218104
0.4375152 0.8559131 0.15771346 4281415741
0.43717581 0.85481477 0.15742414 4281481533
0.4368507 0.85747588 0.15834065 4281218361
0.43636367 0.85623789 0.15795968 4281284154
0.43549153 0.85435998 0.15796715 4281284410
0.43473721 0.85277236 0.15784678 4281153336
0.43410671 0.85095263 0.15787667 4281284406
0.42743129 0.82935154 0.15218668 4281477925
0.42709187 0.82825321 0.15189736 4283844678
0.42683026 0.82639509 0.15116292 4287988609
0.42626452 0.82456446 0.15068071 4287792252
0.42569882 0.82273388 0.15019852 4289110168
0.42513308 0.8209033 0.1497163 4288979351
0.4242633 0.8191002 0.14948633 4288585099
0.42369759 0.81726962 0.14900413 4287861377
0.43421561 0.85469365 0.15831533 4281284408
0.43318221 0.85252893 0.15837251 4281218358
0.43261126 0.85107428 0.15819852 4281283893
0.43209833 0.84849995 0.1582105 4281283893
0.43153259 0.84666932 0.1577283 4281349688
0.43108004 0.84520489 0.15734254 4281283125
0.42653668 0.82999712 0.15321414 4280756000
0.42617956 0.82833582 0.15265404 4282464563
0.42525357 0.82678396 0.15191138 4287793022
0.42442641 0.824956 0.15129358 4288056706
0.42408046 0.82304966 0.15084505 4287859843
0.4232932 0.82128906 0.15032768 4287860358
0.42294765 0.8193841 0.14987947 4288715408
0.4226566 0.81713808 0.14975341 4289045657
0.42180237 0.81518304 0.1494344 4289507239
0.42146295 0.81408471 0.14914508 4288520602
0.43123254 0.84857178 0.15858345 4281218100
0.43037355 0.84698254 0.15797454 4281218102
0.42974746 0.84508646 0.15778001 4281152052
0.42878062 0.84351307 0.15760545 4280954929
0.42821953 0.84151202 0.15771718 4281020721
0.4274452 0.83951211 0.15731287 4280954928
0.42548648 0.8321622 0.15513182 4279703315
0.42522484 0.83030409 0.1543974 4280295193
0.42439342 0.82855719 0.15348205 4282201901
0.42415628 0.8270908 0.15269852 4284700234
0.42134801 0.8174364 0.15024608 4288649362
0.42029512 0.81562704 0.14986339 4288057737
0.41984576 0.81369573 0.14976001 4288847508
0.41908684 0.8117907 0.14984737 4289109907
0.41828066 0.80985647 0.14950117 4289373591
0.41782808 0.80839199 0.14911541 4288056708
0.42810711 0.84506375 0.15823357 4281086516
0.42776701 0.84396309 0.15794364 4280954930
0.42703256 0.84156549 0.15812744 4281086516
0.42624119 0.83953655 0.15799533 4281217330
0.42529151 0.83795637 0.1576671 4281086001
0.42453924 0.83620578 0.15709805 4280625963
0.42415911 0.83429211 0.15670189 4279770653
0.42374006 0.83245569 0.15606275 4279637522
0.42336848 0.83063602 0.15550727 4280097300
0.42266092 0.82917786 0.15446988 4280952606
0.4190369 0.81571317 0.15050223 4288057738
0.41846997 0.81387872 0.15001903 4288913304
0.41767144 0.81195652 0.15021995 4288453006
0.41733915 0.80992013 0.1499978 4288781714
0.41621825 0.80819136 0.14972864 4288912788
0.41572967 0.80678713 0.14949271 4289439389
0.42446473 0.83935916 0.15820384 4281086514
0.42412457 0.8382585 0.15791391 4281086771
0.42355767 0.83642411 0.15743071 4280692012
0.42268607 0.83461726 0.15720025 4280099359
0.42211917 0.83278286 0.15671705 4279638291
0.42155227 0.83094847 0.15623383 4280229656
0.4214035 0.82945335 0.15559451 4280360984
0.41482759 0.80817413 0.14998931 4289504667
0.41443181 0.80619496 0.14998248 4289043858
0.41407365 0.80480301 0.14978737 4288911760
0.41356286 0.80297136 0.14971738 4288912275
0.41241118 0.80097878 0.14961246 4289899942
0.41195861 0.79951429 0.1492267 4288979096
0.41160327 0.80280888 0.14980344 4289176474
0.41126317 0.80170822 0.14951351 4289176474
0.41073638 0.79922962 0.14984529 4288715922
0.40998343 0.79764086 0.14937164 4289636766
0.41002807 0.79630184 0.14911541 4288716175
0.40816447 0.79585302 0.14956753 4289242264
0.40755272 0.79429793 0.14913046 4288715669
0.40700847 0.79216641 0.14939097 4289307550
0.40639323 0.79060912 0.14908575 4289044376
0.40560818 0.79354584 0.14981833 4289900711
0.40526804 0.79244518 0.14952841 4289834917
0.40451652 0.79049903 0.14991476 4288782227
0.40433165 0.78862303 0.14950189 4289110937
0.40404543 0.78705806 0.14913027 4288584337
0.40335944 0.78787291 0.15007985 4289373851
0.40217471 0.78659827 0.1495824 4288979349
0.40153137 0.78496248 0.14949401 4288716177
0.40086317 0.78282982 0.14948635 4288716693
0.40041059 0.78136533 0.14910059 4288782743
0.40014458 0.78498894 0.14977373 4289110679
0.39923468 0.78326106 0.14961316 4289177502
0.39855826 0.78164148 0.1495523 4288650900
0.39812517 0.77985966 0.149349 4289176985
0.39764559 0.77747566 0.1493009 4288714378
0.39693949 0.77895677 0.14991933 4289308060
0.39632225 0.77771348 0.14963771 4288847249
0.39546704 0.77586818 0.14964846 4289110677
0.39468959 0.77397966 0.14984988 4289571230
0.39423704 0.77251518 0.1494641 4288650385
0.39460301 0.77719343 0.15017515 4288582792
0.39426288 0.77609283 0.14988524 4288780943
0.39310673 0.77426451 0.15020882 4289242781
0.39286983 0.77213717 0.15034443 4288651155
0.39203772 0.77045614 0.1501466 4289440412
0.39130074 0.7725895 0.15043536 4288058508
0.39053068 0.77077353 0.15012066 4289109399
0.39027119 0.76858371 0.1505843 4290227111
0.38938582 0.76693261 0.15044336 4294966003
0.3890464 0.76583427 0.15015402 4294966772
0.38928816 0.77013171 0.15076989 4294967029
0.38878441 0.7687692 0.15115952 4294901494
0.38795131 0.76708633 0.15096156 4294901496
0.38750237 0.76522136 0.15105414 4294901496
0.38654298 0.76380277 0.15108876 4294901753
0.38643944 0.76699531 0.15141664 4294901753
0.38589782 0.76512682 0.15192196 4294901753
0.38545391 0.76365042 0.15186524 4294901753
0.38487405 0.76244843 0.15171193 4294901753
0.3840442 0.76532644 0.15244997 4294901753
0.38385072 0.76394171 0.15258521 4294901753
0.3834314 0.76182628 0.15252796 4294901752
0.38277021 0.76019251 0.1522201 4294835958
0.38282529 0.76543683 0.15346099 4294901753
0.38214096 0.7638548 0.15353923 4294901753
0.38192651 0.76181203 0.15370008 4294901753
0.38121653 0.75991923 0.1532995 4294901752
0.38036227 0.75796419 0.15298051 4290688682
0.38002282 0.7568658 0.15269119 4289240984
0.38069218 0.76562995 0.15523028 4294901753
0.38043889 0.76405001 0.15463002 4294901753
0.37997651 0.76230043 0.15410776 4294901753
0.37954369 0.76021695 0.15400138 4294835960
0.37904441 0.75826013 0.15370709 4293322203
0.3785463 0.7563054 0.15341304 4289241242
0.37791902 0.75460994 0.15319934 4288780951
0.37684059 0.75263757 0.15304726 4288190355
0.37627488 0.75080699 0.15256506 4288059026
0.37570915 0.74897635 0.15208286 4288059026
0.37514347 0.74714577 0.15160064 4288124819
0.37480402 0.74604744 0.15131134 4287927440
0.3789064 0.76390588 0.15575808 4294901754
0.3784529 0.76243836 0.15537152 4294901754
0.377886 0.76060396 0.15488832 4294901754
0.37731913 0.75876957 0.1544051 4294835960
0.37675223 0.75693512 0.15392189 4290952629
0.37618533 0.75510073 0.15343869 4288978587
0.37561843 0.75326633 0.15295549 4288518551
0.37505156 0.75143188 0.15247227 4288453014
0.37448466 0.74959749 0.15198907 4288190612
0.37391779 0.74776304 0.15150586 4288059026
0.37366548 0.74539781 0.15187514 4287927440
0.37261418 0.74352586 0.15129676 4287927183
0.37219793 0.74179637 0.15086253 4287926670
0.37139162 0.74000686 0.15034543 4287860877
0.37162891 0.73880762 0.15013921 4287860877
0.3697027 0.73790735 0.15050982 4287926928
0.36910027 0.7367239 0.15015572 4287861394
0.36870298 0.73465025 0.15033025 4287927187
0.36788091 0.73274881 0.1500131 4288058516
0.36667553 0.73446435 0.15045768 4288058771
0.3662163 0.7329585 0.1506032 4287927186
0.36587381 0.73118329 0.15040387 4287861394
0.36522904 0.72922528 0.15030985 4287664015
0.36412901 0.73076695 0.15103972 4287795599
0.36368415 0.72931641 0.15088294 4287597964
0.36302972 0.72716624 0.15099235 4287662986
0.3618893 0.72931588 0.1516055 4287597448
0.36128226 0.7276327 0.15168607 4287400071
0.36105672 0.72583938 0.15186773 4288057232
0.35995045 0.72790742 0.15241283 4287203208
0.35965654 0.72581905 0.15227103 4287925904
0.35885736 0.72378033 0.15255025 4293650142
0.35798758 0.72197729 0.15232027 4294901751
0.3579379 0.72544962 0.15274735 4287925904
0.35794508 0.72386295 0.15330693 4291872192
0.35690039 0.72230107 0.1526522 4294901750
0.35572529 0.72052366 0.1526745 4294835960
0.35538548 0.71942419 0.15238488 4294506995
0.35463563 0.7208457 0.15300755 4290427062
0.35420635 0.71853071 0.15295488 4289636781
0.35367298 0.71702057 0.15285355 4288715424
0.35279694 0.71529633 0.15301019 4288057494
0.35273647 0.71875477 0.15343872 4288255386
0.3521615 0.71702647 0.15347125 4287926421
0.35131243 0.71524078 0.15355945 4287532433
0.35061568 0.71350503 0.15335812 4287269518
0.35056227 0.71211141 0.15315115 4287269518
0.3497743 0.71525145 0.15398884 4287335311
0.34944618 0.71336889 0.15397786 4287269517
0.34907889 0.71154058 0.15387312 4287072138
0.3485539 0.70965868 0.15348499 4286874759
0.34738001 0.70788318 0.15350725 4286874500
0.34681433 0.70605254 0.15302505 4286742913
0.34768379 0.71355498 0.15476941 4287269257
0.34735343 0.71193445 0.15466483 4287203719
0.34652981 0.70973158 0.1546523 4286874754
0.34611803 0.70800793 0.15421745 4286808705
0.34530205 0.70620584 0.15370162 4286611581
0.34498605 0.70434487 0.15325254 4286546044
0.34416962 0.70254141 0.15273637 4286348665
0.34385401 0.70068175 0.15228765 4286348411
0.34352604 0.69844663 0.15175647 4286479998
0.34245411 0.70271409 0.1533867 4286414458
0.34180987 0.69861448 0.15240487 4286348412
0.34118497 0.69704008 0.15196839 4286348412
0.34061846 0.69520694 0.1514855 4286479999
0.34030843 0.69309253 0.15157102 4287005830
0.3396571 0.69135517 0.15089923 4289307043
0.33887294 0.68945885 0.15085883 4294901238
0.33830723 0.68762827 0.15037663 4294901753
0.33785465 0.68616378 0.14999087 4294901753
0.33760709 0.69108421 0.15130518 4288517018
0.33726695 0.68998355 0.15101525 4293255135
0.33664888 0.68793923 0.15085676 4294901753
0.33608976 0.68607104 0.15087129 4294901754
0.33607256 0.6844433 0.15051758 4294901754
0.33419144 0.68611336 0.15146874 4294901754
0.33426264 0.68439454 0.15130354 4294901754
0.33387324 0.68238425 0.1512001 4294901754
0.33259702 0.68399483 0.15164715 4294901753
0.33184314 0.68265241 0.15190102 4294901753
0.33123383 0.68101573 0.15189295 4294901753
0.32963488 0.68049157 0.15219727 4294901755
0.32919309 0.67922229 0.1525854 4294901755
0.328527 0.67722285 0.15278023 4294901755
0.32807583 0.6795013 0.15291837 4294901753
0.32721925 0.67741978 0.15360083 4294901753
0.32556719 0.67746556 0.15385504 4294901753
0.32501638 0.67583287 0.15414493 4292796638
0.32445908 0.67410213 0.1540485 4288519323
0.32389477 0.67610836 0.1544795 4284703080
0.32320628 0.67399687 0.15449843 4284176990
0.32194406 0.67196673 0.15459795 4282992976
0.32128555 0.66997486 0.15479067 4282269766
0.32071984 0.66814429 0.15430845 4282006848
0.32081926 0.67223823 0.15493298 4282072641
0.32016015 0.67024446 0.1551252 4281743675
0.31973639 0.66828883 0.15492435 4281546294
0.31893775 0.6664238 0.15483518 4281151535
0.31837204 0.66459322 0.15435298 4281019949
0.31780633 0.66276264 0.15387078 4280888363
0.31724063 0.660932 0.15338856 4280822313
0.31678805 0.65946752 0.15300281 4280887593
0.31759495 0.66687292 0.15474713 4280690980
0.31702805 0.66503853 0.15426393 4280427808
0.31625566 0.66314727 0.15391304 4280295966
0.31587949 0.66116107 0.1541152 4280164637
0.31557167 0.65957767 0.15401173 4280230429
0.31466824 0.66449791 0.15583993 4279900951
0.31463927 0.66313708 0.15563037 4279900694
0.31461042 0.66177779 0.15542158 4279834901
0.3146539 0.67053354 0.15890273 4279570446
0.31420043 0.66906601 0.15851615 4281148199
0.31415749 0.66702002 0.15819904 4282399547
0.31402543 0.6652025 0.15715571 4281018661
0.31393805 0.6632731 0.15647662 4280097301
0.31381777 0.66199464 0.15660821 4282728508
0.31400192 0.67247832 0.16039695 4286937977
0.31400639 0.67062002 0.16036554 4286939258
0.31359094 0.66912121 0.15902168 4287070079
0.31357723 0.66728556 0.15947177 4288058003
0.31329417 0.67446208 0.16332197 4290556582
0.31386703 0.67328113 0.16227596 4288781462
0.3123152 0.67715681 0.16408421 4291145889
0.312686 0.67451715 0.16382644 4290818726
0.31206352 0.68059534 0.16738732 4290353005
0.3113867 0.68327528 0.16790527 4291274372
0.31147641 0.68779939 0.17148978 4290350188
0.31170982 0.68552011 0.17015444 4290088820
0.31148356 0.68478787 0.16996156 4289891180
0.3102597 0.69280601 0.17360714 4290482797
0.31049362 0.69052196 0.17226902 4290284641
0.30968565 0.6939894 0.17465532 4290482538
0.31047919 0.69165331 0.17421979 4290285418
0.3102529 0.69092113 0.17402691 4290416227
0.30937126 0.69608682 0.17664585 4289954648
0.30911162 0.69517285 0.17570353 4289953875
0.28236312 0.60876441 0.15434559 4294770683
0.28191057 0.60729992 0.15395983 4294770683
0.30807692 0.69790655 0.17789654 4290154600
0.30879596 0.69632208 0.17789938 4289956191
0.28114679 0.60887456 0.15535451 4294770683
0.28058106 0.60704398 0.15487231 4294770683
0.27940717 0.60526842 0.15489458 4294770683
0.30673799 0.69876665 0.18074809 4289964959
0.27966166 0.61013812 0.15715721 4294770686
0.27932221 0.60903978 0.15686789 4294770684
0.27869973 0.60723615 0.1562919 4294770683
0.27819079 0.60537857 0.15590349 4294770683
0.27713004 0.60396916 0.15602219 4294770683
0.30838844 0.71107852 0.18431206 4293512121
0.30816168 0.71034479 0.18411878 4293512121
0.3058964 0.70110101 0.18258788 4289376180
0.30616516 0.6999476 0.18179409 4289638058
0.27814117 0.6102758 0.15841837 4294770686
0.27728745 0.60942447 0.15728959 4294770686
0.27689257 0.60750949 0.15708669 4294770684
0.27667034 0.60551625 0.15716463 4294770683
0.27621773 0.60405177 0.15677887 4294770683
0.30731833 0.71268404 0.18596241 4292991960
0.30731946 0.71130997 0.18581374 4292990931
0.307226 0.70992923 0.1856675 4293188051
0.30641368 0.70810252 0.18481073 4292860635
0.30580899 0.70678633 0.18416339 4292466911
0.30475068 0.70346296 0.1846799 4291088598
0.30490628 0.7019434 0.18378969 4289443516
0.27700099 0.6116246 0.15972038 4294770686
0.27640867 0.61063552 0.15859054 4294770686
0.27561504 0.60806733 0.15791404 4294770686
0.27539426 0.60607314 0.15799044 4294770684
0.27441278 0.60410804 0.15783119 4294770683
0.27341026 0.60204774 0.15796584 4294770683
0.30640414 0.71276683 0.18672067 4292402660
0.30621397 0.71171528 0.18736361 4292074467
0.30617905 0.71010816 0.1869203 4292008415
0.3038384 0.70354551 0.18543659 4291153624
0.30361211 0.70281327 0.18524371 4291087831
0.27197263 0.60236275 0.15788431 4294770683
0.27193227 0.60029978 0.15824033 4294770683
0.3052243 0.71207643 0.18866365 4291877348
0.27445978 0.61345202 0.16154183 4290955219
0.27037817 0.60024422 0.15806273 4294770683
0.2696757 0.59852219 0.15842628 4294770683
0.26916212 0.59682578 0.15835088 4294770683
0.26841059 0.59497315 0.15830709 4294770683
0.26795802 0.59350866 0.15792133 4294770683
0.265582 0.5858202 0.15589608 4293980398
0.26490316 0.58362347 0.15531744 4292926938
0.26433745 0.58179283 0.15483524 4294703602
0.26696253 0.59527344 0.15822628 4294770683
0.26657477 0.59336823 0.15802269 4294770683
0.26636687 0.5913946 0.15809938 4294770426
0.26580116 0.58956397 0.15761718 4293256676
0.26523545 0.58773339 0.15713497 4290558390
0.26412809 0.58610135 0.15581025 4288715679
0.26362896 0.5838359 0.15551175 4289899696
0.26280099 0.58224279 0.15544637 4294177777
0.26232123 0.58029926 0.15511318 4294901754
0.30237433 0.71195811 0.19083728 4292141548
0.27159247 0.61538512 0.16613363 4292535544
0.27136618 0.61465287 0.16594075 4292404214
0.2617754 0.5825429 0.15585485 4293190372
0.26127791 0.58027989 0.15555632 4294901755
0.26009482 0.57883483 0.15620877 4294901755
0.30556041 0.73132342 0.19676398 4284706173
0.25869986 0.57867271 0.15630832 4294901755
0.25814879 0.57692862 0.15688391 4294901755
0.25707099 0.5766809 0.15767176 4294901755
0.25568867 0.57504869 0.15820324 4294901755
0.25449491 0.57521939 0.15854134 4294901755
0.25390658 0.5733282 0.15872997 4294901755
0.26440382 0.61436248 0.16988276 4285033862
0.25260776 0.57316893 0.15939385 4294901755
0.25192365 0.57182121 0.15913132 4294901755
0.25140601 0.57009208 0.15905342 4294901755
0.2639195 0.61382163 0.17135628 4288059818
0.25090468 0.57372129 0.15991381 4294901755
0.25064135 0.57219768 0.15980563 4294901755
0.25004718 0.56994236 0.15970077 4294901755
0.24910818 0.56892592 0.15958084 4294901755
0.26114732 0.61294353 0.1730848 4294770685
0.24779536 0.56858391 0.16014376 4294901755
0.24728158 0.56663114 0.1603405 4294901755
0.24632569 0.56498188 0.16045107 4294901755
0.26053911 0.6129986 0.17358926 4294770685
0.24517174 0.56632024 0.16066465 4294901755
0.24500938 0.56477594 0.16069479 4294901755
0.2448477 0.56323385 0.16072556 4294901755
0.2436907 0.56456864 0.16093971 4294901755
0.24269281 0.56313968 0.16115123 4294901755
0.24245241 0.5612241 0.16113079 4294901755
0.24189171 0.55973786 0.16127454 4294901755
0.25655061 0.61223066 0.17632669 4294770686
0.24042383 0.56109291 0.16174257 4294901755
0.2405622 0.55948192 0.16218701 4294901755
0.23999648 0.55765128 0.16170481 4294901755
0.23943079 0.5558207 0.16122261 4294901755
0.23875193 0.55362397 0.16064397 4294441204
0.25533423 0.61234081 0.17733561 4294770686
0.23905614 0.55970818 0.16211428 4294901755
0.2380781 0.55788231 0.16241337 4294770169
0.23751163 0.55604917 0.16193052 4294111725
0.23704056 0.55403864 0.16141336 4292664280
0.23622429 0.55230898 0.1609344 4287991181
0.23579593 0.55012798 0.16119294 4282728513
0.2532838 0.61316454 0.17844732 4294770686
0.25264004 0.6127876 0.17830546 4294770686
0.23439333 0.55070168 0.16121477 4282662465
0.23341212 0.54867047 0.16134751 4281151023
0.23335268 0.54677373 0.16141178 4280954156
0.25164789 0.61363173 0.17950976 4294770686
0.25142115 0.61289793 0.17931648 4294770686
0.23223136 0.5467025 0.16191265 4280953386
0.2308196 0.54519403 0.16177776 4280953386
0.23024344 0.54330546 0.16175301 4280756264
0.22973552 0.54164398 0.16165289 4280756777
0.229532 0.54510742 0.16219606 4280821800
0.22884546 0.54326266 0.16234834 4280756264
0.22804393 0.5419569 0.16222519 4280690214
0.22784027 0.5395574 0.16208316 4280559398
0.2272746 0.53772676 0.16160096 4280625191
0.22670887 0.53589618 0.16111876 4280822570
0.22614315 0.5340656 0.16063656 4280690984
0.22557743 0.53223497 0.16015434 4280690984
0.22501174 0.53040439 0.15967214 4280822570
0.22444601 0.52857381 0.15918994 4280954156
0.22388029 0.52674317 0.15870774 4280888363
0.22354089 0.52564484 0.15841842 4280756777
0.22059917 0.51612568 0.15591095 4280428584
0.22707057 0.54115713 0.16281144 4280690214
0.22678579 0.5398221 0.16249642 4280559398
0.22560015 0.53819281 0.16212323 4280625191
0.22528762 0.53626221 0.16163619 4280756777
0.22472504 0.534594 0.16110349 4280690984
0.22435234 0.53236109 0.16049448 4280690984
0.22378604 0.53052855 0.16001175 4280822570
0.22281057 0.52873689 0.15964244 4280888363
0.22245379 0.52687854 0.15943831 4280888363
0.22168605 0.52517384 0.15904778 4280690984
0.22096823 0.5230217 0.15856133 4280690984
0.22017625 0.52128667 0.15803128 4280559398
0.21983585 0.51935744 0.15759611 4280428069
0.2190434 0.51762086 0.15706567 4280362277
0.2189181 0.51577449 0.15659502 4280428070
0.21803841 0.51394558 0.15626857 4280428071
0.21762554 0.51206678 0.15618916 4280362019
0.2168512 0.51006687 0.15578485 4280362019
0.22433056 0.53841257 0.16288742 4280690984
0.22376367 0.53657818 0.16240421 4280756777
0.22342356 0.53547752 0.16211429 4280756777
0.22138275 0.52887362 0.16037475 4280888616
0.22081585 0.52703923 0.15989153 4280954156
0.22024897 0.52520484 0.15940833 4280756777
0.21968207 0.52337039 0.15892512 4280625191
