# .PCD v0.7 - Point Cloud Data file format
VERSION 0.7
FIELDS x y z rgb
SIZE 4 4 4 4
TYPE F F F U
COUNT 1 1 1 1
WIDTH 1094
HEIGHT 1
VIEWPOINT 0 0 0 1 0 0 0
POINTS 1094
DATA ascii
0.37368122 0.56828201 0.15551884 4294901755
0.37128022 0.56618333 0.15485404 4294901497
0.36895329 0.56469625 0.15464787 4288847008
0.36815831 0.56380451 0.15427005 4288058005
0.36545491 0.5627538 0.15457298 4286283391
0.36402377 0.56180906 0.15442203 4286020217
0.36302185 0.56180811 0.15484558 4286547333
0.36039788 0.56117672 0.1554509 4286218113
0.35876516 0.56093067 0.15594509 4287138702
0.35733047 0.56011403 0.15589833 4283255888
0.35606176 0.5598799 0.15624802 4282926921
0.35462707 0.55906332 0.15620126 4281085747
0.35355997 0.55813056 0.1559058 4281019699
0.35335836 0.55882919 0.15655093 4281282101
0.35210747 0.55795449 0.15637982 4281151283
0.35085654 0.55707985 0.15620871 4280955443
0.35065496 0.55777848 0.15685384 4281414709
0.34985462 0.5570789 0.15663226 4281020210
0.34840214 0.55690283 0.15710628 4281216560
0.34715122 0.55602819 0.15693517 4281151024
0.34569874 0.55585212 0.15740919 4281216818
0.34418106 0.55474424 0.15716422 4281283124
0.34299535 0.5548014 0.15771212 4281348663
0.34156954 0.55366451 0.15740496 4281348663
0.34059435 0.55270272 0.15704732 4281480504
0.34016997 0.55392528 0.15820657 4281349946
0.33903426 0.55265135 0.1576668 4281152566
0.33781686 0.55104047 0.15689161 4280955186
0.33786422 0.55261284 0.15813142 4281152309
0.33641726 0.55130124 0.15769324 4281020722
0.33536395 0.54999 0.15708867 4281086516
0.33381569 0.55014575 0.15786915 4281283894
0.33286062 0.54911417 0.15744697 4281152308
0.3317579 0.54946256 0.15819308 4281218102
0.3303321 0.54832566 0.15788594 4281152310
0.32900715 0.54683948 0.1572562 4281218103
0.32795784 0.54526615 0.15643996 4281218100
0.3279044 0.54718781 0.15800232 4281152567
0.32685512 0.54561454 0.15718606 4281218102
0.32553011 0.54412836 0.15655635 4281020980
0.32420516 0.54264218 0.15592661 4281218101
0.32315585 0.54106885 0.15511036 4281152050
0.32210654 0.53949559 0.15429412 4281283123
0.32105726 0.53792232 0.15347786 4281151537
0.32000798 0.53634906 0.15266162 4281086257
0.31895867 0.53477573 0.15184537 4281020723
0.31825915 0.53372693 0.15130119 4281020723
0.32310238 0.54299051 0.15667273 4281283894
0.32180262 0.541417 0.15596236 4281415222
0.32072812 0.53993106 0.15522675 4281151538
0.31967884 0.53835779 0.15441051 4281019951
0.31862953 0.53678447 0.15359426 4281085744
0.31758025 0.53521121 0.152778 4280954928
0.31670582 0.53390014 0.15209779 4280954928
0.31575078 0.5328685 0.15167566 4281020721
0.31707627 0.53695774 0.15439086 4281019951
0.31620184 0.53564668 0.15371065 4281085744
0.31532741 0.53433561 0.15303044 4281086257
0.31445301 0.53302455 0.15235022 4281020722
0.31375346 0.53197569 0.15180606 4281086516
0.31519988 0.53564572 0.15413418 4281085746
0.31394899 0.53477108 0.15396306 4280954673
0.31307456 0.53346002 0.15328287 4281020723
0.31191769 0.53201139 0.15261208 4280954930
0.3107003 0.53040051 0.15183689 4281020723
0.31179693 0.53354615 0.15389293 4281086516
0.31035003 0.53223455 0.15345475 4280889137
0.30932188 0.53083599 0.15276954 4280954930
0.3082726 0.52926272 0.15195327 4280954931
0.30719811 0.52777678 0.15121767 4281086517
0.30589834 0.52620327 0.1505073 4281218102
0.30549511 0.52760047 0.15179758 4281020469
0.30451992 0.52663869 0.15143993 4281218102
0.30347058 0.52506542 0.15062369 4281349688
0.30277109 0.52401656 0.15007952 4281415225
0.30192405 0.52546328 0.1515974 4281545783
0.30078837 0.52418941 0.15105763 4281545782
0.29951629 0.52314001 0.15075549 4281348916
0.29901353 0.52418774 0.15180793 4281283893
0.2981883 0.52340084 0.15152685 4281218100
0.29738492 0.52444828 0.15270634 4281283893
0.29643491 0.52339917 0.15226804 4281218100
0.29571018 0.52243769 0.15180452 4281283893
0.29489002 0.5235433 0.15303777 4281152822
0.29361442 0.52246481 0.15271379 4281021236
0.29273111 0.52147406 0.15229397 4281218614
0.29218659 0.52249259 0.15334068 4281152564
0.29091102 0.5214141 0.15301672 4281152820
0.28981921 0.5202775 0.15256837 4281284408
0.28905249 0.51946151 0.15223925 4281218361
0.2897253 0.5214712 0.1535646 4281350199
0.28854969 0.52050924 0.15329169 4281284408
0.28769958 0.51963496 0.15295115 4281152823
0.28664541 0.52085686 0.15437661 4281152822
0.28592068 0.51989532 0.15391308 4281087029
0.28497067 0.51884627 0.15347481 4281087029
0.28442615 0.5198648 0.15452151 4281152822
0.2835182 0.5186702 0.15394883 4281284151
0.28254294 0.51770842 0.15359119 4281349686
0.28339064 0.51998031 0.15505259 4281218613
0.28246582 0.51884389 0.15453365 4281349686
0.28099856 0.51756138 0.15412739 4281283893
0.27971506 0.51622087 0.15359677 4281218101
0.27879027 0.51508445 0.15307786 4281349688
0.27981284 0.51761854 0.15467529 4281218613
0.27864793 0.51627225 0.15408991 4281218615
0.27723017 0.51503307 0.15369736 4281152568
0.27566248 0.51525623 0.15454002 4281284152
0.27435866 0.51394475 0.15404133 4281349689
0.27306092 0.51410073 0.15471594 4281284153
0.27193093 0.51280689 0.15415773 4281349688
0.27060598 0.51132071 0.15352799 4281415737
0.26977894 0.51158202 0.15408759 4281415481
0.26815307 0.51027024 0.15372503 4281349687
0.26685327 0.50869673 0.15301466 4281416249
0.26615375 0.50764787 0.1524705 4281350712
0.26567647 0.50843358 0.15330216 4281613371
0.26465085 0.50764644 0.1531058 4281613114
0.26370084 0.5065974 0.15266754 4281744444
0.26275083 0.5055483 0.15222925 4281941310
0.26199785 0.50642109 0.15324743 4281809468
0.26104379 0.50563401 0.15302083 4281875262
0.25977173 0.50458467 0.15271869 4281940801
0.25929448 0.50537032 0.15355036 4282007107
0.25837752 0.50449598 0.15323806 4281941828
0.25706834 0.5035339 0.1530216 4282205256
0.25659105 0.50431961 0.15385328 4282139207
0.25586602 0.50353277 0.15352988 4281875777
0.25386217 0.50353086 0.15437697 4281678141
0.25283182 0.50258654 0.15405662 4281415225
0.25250924 0.50370431 0.15508883 4281415481
0.2515192 0.50262028 0.15463948 4281481530
0.25055882 0.50178081 0.15437356 4281481274
0.24913152 0.50151742 0.15476693 4281677113
0.24750566 0.50020564 0.15440439 4281940285
0.24650371 0.50020474 0.15482792 4281875005
0.24537884 0.49889341 0.1542536 4281546295
0.24375296 0.49758166 0.15389106 4281283895
0.24292593 0.49784294 0.15445064 4281218615
0.24162209 0.49653146 0.15395194 4281350202
0.24002747 0.49659982 0.15468204 4281284154
0.23852105 0.49574241 0.15463293 4281283641
0.23849432 0.49670321 0.1554141 4281284408
0.23753393 0.49586374 0.15514821 4281284154
0.23609333 0.49460459 0.15474932 4281284153
0.23511811 0.49364281 0.15439168 4281284409
0.23481573 0.49469075 0.15535939 4281087799
0.23393239 0.49369994 0.15493958 4281153336
0.23241471 0.4925921 0.15469459 4281350201
0.31085694 0.61320835 0.21812101 4281683316
0.3103323 0.61242169 0.21771288 4281814902
0.232388 0.49355292 0.15547578 4281284406
0.2311119 0.49276558 0.1553853 4281349943
0.30815354 0.61215764 0.21842393 4281880697
0.22968459 0.49250218 0.15577869 4281350199
0.22840852 0.49171484 0.15568823 4281218614
0.22745851 0.49066576 0.15524994 4281218616
0.3076022 0.61233181 0.21879698 4281814904
0.30597481 0.61189353 0.21913497 4281945977
0.22698121 0.49145147 0.15608162 4281152822
0.22567204 0.49048939 0.15586516 4281218104
0.22475509 0.48961502 0.15555286 4281152312
0.30514774 0.61215484 0.21969455 4282080130
0.22400212 0.49048784 0.15657106 4281217848
0.2234775 0.48970118 0.15616293 4281217848
0.30324468 0.61180365 0.22021908 4284386996
0.22179969 0.48943755 0.1566622 4281218363
0.2207673 0.48842582 0.15628873 4281217850
0.21989968 0.48733938 0.15578564 4281349435
0.30051458 0.61171371 0.22130316 4283790489
0.21959725 0.48838729 0.15675335 4281217849
0.21817149 0.48725039 0.15644619 4281414970
0.29901165 0.61171234 0.22193849 4282472317
0.2154469 0.48602495 0.15661807 4281349690
0.2141431 0.48471349 0.15611938 4281284154
0.29750878 0.61171091 0.2225738 4282471544
0.29615706 0.61118555 0.22272526 4283061880
0.21286549 0.48479965 0.15672946 4280956214
0.21173657 0.4837504 0.15636681 4280824884
0.21028961 0.48243877 0.15592863 4280890420
0.20976496 0.48165214 0.1555205 4280693041
0.29533002 0.6114468 0.22328484 4283126902
0.20946257 0.48270008 0.15648821 4280889905
0.20833766 0.48138875 0.15591387 4280823857
0.20688669 0.48033923 0.15568738 4280823855
0.29242501 0.61109471 0.2242329 4285824660
0.20563428 0.48033804 0.1562168 4280758062
0.2041833 0.47928849 0.15599029 4280758062
0.29024625 0.61083061 0.22494395 4286614435
0.20301324 0.47924998 0.15645491 4280693040
0.201305 0.47797555 0.15615717 4280824627
0.28806755 0.61056656 0.22565499 4287009190
0.20145318 0.47919858 0.15707439 4280758832
0.20052835 0.47806215 0.15655546 4280758832
0.19887729 0.47683769 0.15627354 4280758319
0.19796927 0.4756431 0.15570086 4280955441
0.28696477 0.61091489 0.22640111 4289903054
0.19782495 0.47701141 0.15685837 4280889906
0.19654149 0.47567087 0.15632777 4281021493
0.19526587 0.47459236 0.15600377 4281021749
0.28451037 0.61073792 0.22729866 4289573058
0.19499707 0.47552383 0.15686397 4281087799
0.1937865 0.47450942 0.15656385 4281021750
0.1923708 0.47333762 0.15622441 4281218616
0.28313193 0.61117333 0.22823131 4291480024
0.19229367 0.47447309 0.15716688 4281022006
0.19130366 0.47338903 0.15671754 4281152824
0.18999349 0.47202516 0.15617952 4280955959
0.28122887 0.6108222 0.22875583 4288979379
0.19031653 0.47351038 0.15723279 4281021495
0.18915161 0.47216409 0.1566474 4281021496
0.27957475 0.6113447 0.229875 4288650410
0.27819636 0.61178017 0.23080763 4289240738
0.27684465 0.61125481 0.23095909 4288912548
0.27601761 0.61151612 0.23151869 4288584100
0.27356318 0.61133909 0.23241626 4287928489
0.27321339 0.61081469 0.23214416 4287796903
0.27246043 0.61168748 0.23316236 4287599269
0.27132612 0.6109876 0.23308195 4287007647
0.26743013 0.60914963 0.2332591 4288389547
0.26660308 0.60941088 0.23381868 4289243828
0.3082276 0.75689644 0.33436576 4281677361
0.30632454 0.75654525 0.33489025 4281743154
0.30494609 0.75698072 0.33582291 4281809203
0.3041496 0.75614393 0.33548972 4282072632
0.30205593 0.75675088 0.33686271 4282137660
0.42242378 0.58427191 0.14499044 4294639605
0.42172089 0.58321798 0.14444366 4294770683
0.42066655 0.5816372 0.1436235 4294770683
0.41998228 0.58013207 0.14405689 4294770683
0.42053843 0.58295363 0.14473255 4294770681
0.41958383 0.58189952 0.14429212 4294770681
0.41851392 0.58020639 0.14398849 4294770681
0.41727239 0.57907885 0.14436053 4294770681
0.41686749 0.58084375 0.14459649 4294770681
0.41580042 0.57915181 0.1442925 4294770681
0.41438723 0.57776272 0.14452779 4294770683
0.41555846 0.58101803 0.14529054 4294770681
0.4141511 0.57978797 0.14490084 4294770681
0.41306335 0.57815981 0.14473179 4294770681
0.41284207 0.57996225 0.14559492 4294770681
0.41167155 0.57860953 0.14500669 4294770681
0.41061148 0.57707047 0.14489724 4294770681
0.40922132 0.57578915 0.14445934 4294770681
0.4092471 0.57758909 0.14521581 4294770681
0.40799767 0.57585764 0.14474316 4294770681
0.40650818 0.57473469 0.14476334 4294770681
0.40518743 0.5750187 0.14521281 4294770681
0.40444708 0.5740751 0.14488275 4294770681
0.40343606 0.57591611 0.14633608 4294770681
0.40301019 0.57477468 0.1456019 4294770681
0.4025782 0.57714403 0.14768329 4294770681
0.40217301 0.57570243 0.14804934 4294770681
0.40206492 0.57433635 0.1470006 4294770681
0.40135443 0.57795632 0.14923798 4294901753
0.40128338 0.57617438 0.14880429 4294836217
0.40003148 0.57986248 0.15093996 4294901753
0.4000293 0.57845438 0.15048744 4294901753
0.39892346 0.58021253 0.15168965 4294901753
0.39874268 0.57888633 0.15205318 4294901753
0.39726141 0.58073759 0.15281419 4294901753
0.39615339 0.58108759 0.15356387 4294901753
0.39542657 0.57993394 0.15429689 4294901754
0.39399064 0.58067179 0.15459645 4294901754
0.39180321 0.58040667 0.15531032 4294901754
0.39013982 0.58011651 0.15533239 4294901755
0.38887465 0.57913977 0.15643513 4294901755
0.38814947 0.57910091 0.15603626 4294901755
0.38651538 0.57861221 0.15701152 4294901755
0.38450989 0.57851386 0.15643236 4294901755
0.3817935 0.57745814 0.15673673 4294901755
0.37882164 0.57571751 0.15660059 4294901755
0.37795889 0.57492673 0.15633237 4294901755
0.37627465 0.57320106 0.15611275 4294901755
0.37565517 0.57185996 0.15620026 4294901755
0.37311801 0.57018274 0.15458116 4294901754
0.37232801 0.56858361 0.15453416 4294901754
0.37123182 0.56744283 0.15408432 4294638581
0.36974391 0.56621516 0.15373076 4289834155
0.36980003 0.56772208 0.15401465 4289703851
0.36894098 0.5663715 0.15397109 4288979621
0.36725461 0.56506139 0.15350051 4288256155
0.36620507 0.56534898 0.15363553 4288124825
0.36496419 0.56390268 0.15390193 4286743942
0.3634887 0.56429321 0.1539399 4286743942
0.36227435 0.56296706 0.15416276 4286744200
0.36077234 0.56323743 0.15424427 4286942093
0.35923842 0.56244606 0.15425977 4286810505
0.35788023 0.5619182 0.15441194 4287599253
0.3567991 0.56130278 0.15437672 4287071624
0.35588467 0.56127268 0.15473981 4287598224
0.35425854 0.55984432 0.15563355 4282269250
0.35298309 0.55985612 0.15584572 4283387731
0.35179135 0.55882049 0.155858 4281216562
0.35133949 0.56015664 0.15577038 4286874758
0.35014993 0.5591656 0.15615483 4282598727
0.34929043 0.55791336 0.15619023 4281151281
0.34862313 0.55910093 0.15607475 4281084719
0.34740388 0.55793571 0.15633224 4281479219
0.34658054 0.55686015 0.15649389 4281216560
0.34590676 0.55804515 0.15637912 4281611318
0.34469077 0.55688119 0.15663628 4281151283
0.34387067 0.55580688 0.15679751 4281151539
0.34233627 0.55653942 0.15702206 4281151544
0.34097943 0.55608875 0.15757297 4281217849
0.33981425 0.55571473 0.15754174 4281415740
0.33818001 0.55527455 0.15788113 4281481016
0.3372587 0.55420536 0.15777445 4281283894
0.33629426 0.55291772 0.15742105 4281086514
0.33511573 0.5544365 0.15805742 4281283892
0.33443156 0.55312324 0.15783471 4281218100
0.3336432 0.55159873 0.15758812 4281349687
0.33239937 0.55338073 0.15836179 4281349686
0.33191726 0.55209976 0.15787691 4281415479
0.33104247 0.55040371 0.15790062 4281283895
0.33041278 0.5524134 0.158428 4281349943
0.32936153 0.5510146 0.15835214 4281087029
0.3284404 0.54922545 0.15805845 4281152823
0.3268359 0.54782301 0.1576142 4281087029
0.32578412 0.54624599 0.15679599 4281284152
0.32762045 0.55162096 0.15897542 4281218358
0.32654077 0.55012786 0.15823628 4281218359
0.32559484 0.54838079 0.15783693 4281152822
0.32459608 0.54671896 0.15722823 4281284151
0.32362691 0.54501808 0.15672567 4281086516
0.32202241 0.54361564 0.15628143 4281349688
0.32132122 0.54256427 0.15573595 4281547065
0.32498002 0.55030191 0.15903674 4281283895
0.32384974 0.54898435 0.15845962 4281283895
0.32277009 0.54749125 0.15772048 4281349688
0.32189223 0.54586262 0.15712473 4281283895
0.32085505 0.54419738 0.15683696 4281218102
0.31986523 0.54238784 0.15621112 4281415225
0.31898871 0.54107362 0.15552928 4281152051
0.31811219 0.5397594 0.15484744 4281020464
0.3170816 0.5383575 0.15416056 4281019951
0.31563118 0.53704274 0.15372133 4281085746
0.32050642 0.54661143 0.15797417 4281349687
0.31935084 0.54538161 0.15747806 4281152308
0.31829649 0.54380077 0.1566579 4281283895
0.31730083 0.54214031 0.15604909 4281348917
0.31639475 0.54036254 0.15575807 4281086257
0.3154023 0.53870612 0.15515107 4280889138
0.31435049 0.5371291 0.15433286 4281020211
0.31321785 0.53583217 0.15377331 4280889137
0.3120448 0.53467524 0.15334314 4281086516
0.31824282 0.5457316 0.1582278 4281218101
0.31674254 0.54420054 0.15763628 4281218102
0.31558013 0.54274499 0.15696228 4281283895
0.31452581 0.54116416 0.15614212 4281218104
0.31347147 0.53958338 0.15532194 4280954931
0.3125394 0.53784752 0.15492567 4281021236
0.31154758 0.53619128 0.15431851 4280954929
0.3105576 0.53453696 0.15371217 4281020721
0.30945614 0.53320187 0.15325874 4280889392
0.30793253 0.53151929 0.15255584 4281086002
0.30688071 0.52994221 0.15173762 4280954676
0.3060042 0.52862805 0.15105578 4281020469
0.315175 0.54414886 0.1582588 4281284408
0.31419513 0.54318255 0.15789941 4281218359
0.31314078 0.54160172 0.15707925 4281284154
0.31180942 0.54010844 0.15644649 4281086262
0.3107551 0.53852761 0.15562631 4281283896
0.30970079 0.53694677 0.15480615 4281020980
0.30870944 0.53528982 0.15419832 4280823857
0.30768728 0.53367203 0.15348484 4280889649
0.30684078 0.53218609 0.15278123 4281086001
0.30583394 0.53068781 0.1522385 4281019953
0.30471915 0.52912277 0.15149027 4280954931
0.30352369 0.52869064 0.15080681 4281020723
0.31070143 0.54045844 0.15719622 4281283641
0.30964711 0.53887761 0.15637605 4281283641
0.30859277 0.53729677 0.15555587 4281086261
0.30753845 0.53571594 0.15473571 4280889650
0.30648413 0.5341351 0.15391555 4280955442
0.30560553 0.53281778 0.15323207 4281152050
0.30443501 0.53146505 0.15264383 4280954671
0.30314386 0.53000689 0.15202221 4281086514
0.30231509 0.52800035 0.15144017 4281086259
0.30102721 0.52677619 0.15122983 4281414966
0.30183482 0.53018117 0.15271628 4281086514
0.30066431 0.52882844 0.15212804 4280954928
0.29962826 0.52722895 0.15177596 4281283893
0.29917642 0.52555704 0.15148653 4281415479
0.29794794 0.52777267 0.15243241 4281086514
0.29746246 0.52594161 0.15237054 4281283893
0.29606795 0.52476609 0.15216914 4281218613
0.29667908 0.52798212 0.15313759 4281086514
0.29559341 0.52668077 0.15285455 4281218357
0.29468226 0.52502 0.15262198 4281152820
0.29335806 0.52371287 0.15247278 4281218613
0.29412353 0.52706695 0.15348648 4281218100
0.29284284 0.52566111 0.15305237 4281284406
0.29197073 0.52396607 0.15292583 4281218100
0.29064819 0.5226596 0.15277642 4281087027
0.29147273 0.52595854 0.15372096 4281284151
0.29012722 0.52460563 0.15335666 4281283893
0.28925925 0.52291226 0.15322962 4281284406
0.28818095 0.52163577 0.15300088 4281284407
0.28850973 0.524885 0.1541155 4281349686
0.28741154 0.52355015 0.15366095 4281284407
0.28672045 0.52205986 0.15350929 4281218615
0.28626639 0.52393502 0.15430434 4281415992
0.28469589 0.52249461 0.15396523 4281152822
0.28391004 0.52111393 0.15385158 4281218615
0.28319857 0.52235228 0.15433532 4281218615
0.28223279 0.52134174 0.1542045 4281284407
0.28116268 0.52000737 0.15412833 4281284406
0.28026029 0.51862216 0.15394039 4281152820
0.28013077 0.5207696 0.1543663 4281350199
0.27857876 0.5191803 0.15402006 4281152822
0.27764884 0.51749492 0.15369324 4281284408
0.27678594 0.51927435 0.15458471 4281218614
0.27612573 0.51771426 0.15434085 4281218615
0.27511188 0.51670372 0.15413365 4281350201
0.27406958 0.51821858 0.15488908 4281284406
0.27371457 0.51688391 0.15464477 4281219127
0.27285188 0.51532549 0.1544362 4281284665
0.27185661 0.51716328 0.15498066 4281284406
0.27096885 0.51598865 0.1545653 4281218615
0.26999819 0.51434302 0.15395768 4281349688
0.26909018 0.51269519 0.15392163 4281481017
0.26822045 0.51160616 0.15341733 4281415224
0.26946789 0.51584452 0.15493555 4281349688
0.26876497 0.51479065 0.15438877 4281480760
0.26713535 0.51320934 0.15381174 4281546039
0.26618785 0.51174051 0.15333603 4281480502
0.26526362 0.51006615 0.15283577 4281481272
0.26428345 0.50871301 0.15276641 4281744444
0.2636373 0.51092404 0.15346202 4281546809
0.26267743 0.50943607 0.15292162 4281743676
0.26166213 0.50765109 0.15285692 4281743933
0.25998208 0.50828475 0.15316513 4281613116
0.25885025 0.50666642 0.15292126 4281744447
0.25771084 0.50537962 0.15287882 4281941571
0.25707459 0.50731939 0.1533529 4281613373
0.25619349 0.50583267 0.15293969 4281678654
0.25500098 0.50432634 0.15318246 4281941571
0.25431857 0.50564563 0.15371884 4281546811
0.25350779 0.50485408 0.15369785 4281744190
0.2530745 0.50635016 0.15427029 4281546297
0.25192943 0.50516248 0.15414093 4281481274
0.25055954 0.50388783 0.15403718 4281679166
0.24993181 0.50274551 0.15406249 4281809469
0.25008115 0.50538188 0.15476207 4281481273
0.24919604 0.50435597 0.15461478 4281613116
0.24840373 0.50302601 0.15439457 4281612090
0.24799323 0.50476557 0.15515241 4281612604
0.24685375 0.50308377 0.15467298 4281677883
0.24585672 0.50161362 0.15428142 4281612089
0.24439368 0.50041908 0.15386887 4281349685
0.24380358 0.501836 0.15457931 4281612858
0.24308562 0.50044894 0.15415753 4281349685
0.24238738 0.4990426 0.15402046 4281284150
0.24130303 0.49783412 0.15378127 4281218615
0.24276307 0.50195205 0.15511292 4281678651
0.24183382 0.50081021 0.1545915 4281481273
0.2408438 0.49943632 0.15435979 4281284151
0.23970795 0.49809328 0.15421459 4281349945
0.23934382 0.49984241 0.15487051 4281481272
0.23825286 0.49851483 0.1546544 4281415737
0.23683314 0.49728575 0.15455997 4281350200
0.23570798 0.49546474 0.15425217 4281284408
0.23662746 0.49878663 0.15517488 4281679934
0.23544811 0.49753767 0.15501092 4281153590
0.23443568 0.49599627 0.15491697 4281153592
0.2329981 0.4944115 0.15455581 4281153335
0.31112731 0.61400908 0.21594895 4281618037
0.31020597 0.61313051 0.21563517 4281814901
0.2339111 0.49773088 0.15547925 4281481785
0.23273335 0.49648252 0.15531512 4281350199
0.23168859 0.49484545 0.15518814 4281219126
0.30869576 0.61242485 0.21705885 4282011510
0.30770278 0.61207467 0.21629906 4283456119
0.23119472 0.4966751 0.15578362 4281481785
0.23049185 0.49562123 0.15523686 4281350456
0.22887817 0.4939512 0.15507281 4281087797
0.30559763 0.61210173 0.21721223 4282274426
0.22759975 0.49430197 0.15540452 4281087797
0.22616416 0.49289635 0.15537691 4281218871
0.2253201 0.4914273 0.15541615 4281152568
0.3041805 0.61215889 0.21808305 4282012539
0.30267438 0.61189473 0.21783441 4283198354
0.22460638 0.49333373 0.15589632 4281284153
0.22355917 0.49205089 0.15561178 4281086776
0.22250919 0.49072421 0.15604314 4281086777
0.30184335 0.61215723 0.21839668 4283528856
0.22171429 0.49201447 0.15606399 4281020983
0.22084424 0.49099562 0.15591601 4281086777
0.30020782 0.6119796 0.21962179 4286749362
0.21899796 0.49095872 0.15636836 4281152568
0.21879628 0.48978797 0.15619047 4281283898
0.21809377 0.48861864 0.15622586 4281480250
0.29870066 0.61197841 0.22025907 4282799993
0.29718792 0.61171407 0.22001302 4283191921
0.21746404 0.49016735 0.15638386 4281284152
0.21613654 0.48863295 0.15646638 4281349691
0.21540943 0.48730275 0.1563082 4281284154
0.2957564 0.61158103 0.22085008 4284639622
0.21464637 0.48946255 0.15701233 4281152568
0.21359405 0.48783094 0.15645051 4281152567
0.21250817 0.48626268 0.15636608 4280955957
0.21134584 0.4850224 0.15620191 4280824625
0.29415843 0.6113956 0.22185059 4285822608
0.29263383 0.61091983 0.22130524 4286019472
0.2110514 0.48708946 0.15663321 4280824112
0.20983209 0.48530772 0.15621272 4280824624
0.20870821 0.48374367 0.1560694 4280823855
0.20758414 0.48239207 0.15568735 4280758062
0.29292953 0.61135936 0.22288175 4287007647
0.29152578 0.61126989 0.2220549 4285956247
0.20798361 0.48550674 0.15666421 4280889391
0.2070037 0.4845404 0.15630482 4280823855
0.20612709 0.48255157 0.15598226 4280823855
0.20487425 0.48133883 0.15599099 4280823855
0.29074556 0.61109465 0.2235945 4286351265
0.28933659 0.61100453 0.22276938 4287733688
0.20526725 0.48445097 0.15696859 4280824623
0.20439541 0.48335934 0.15646303 4280758831
0.20341505 0.48149747 0.15628614 4280693040
0.20198908 0.48002276 0.15615827 4280627248
0.28856158 0.61082989 0.22430724 4286089371
0.28714737 0.61073923 0.2234838 4287866043
0.2028279 0.48330769 0.15708554 4280889650
0.20194452 0.48197711 0.15684333 4280758320
0.20057096 0.48063684 0.15628685 4280692782
0.19963996 0.47918022 0.15625305 4280824368
0.1987533 0.47818097 0.15605281 4280693041
0.28582492 0.61073977 0.22539395 4287732913
0.28468117 0.61056131 0.22438571 4287469742
0.19923291 0.48093456 0.15670644 4280823598
0.1979626 0.47965208 0.15655418 4280889648
0.19695263 0.47821835 0.15626685 4280955700
0.19569281 0.47660205 0.1560837 4281021236
0.28341153 0.61082411 0.22558381 4288192693
0.19651656 0.47987878 0.15701081 4280955443
0.19534604 0.47852606 0.15642257 4281152567
0.19442132 0.47709772 0.15634455 4281087030
0.19324914 0.47578734 0.15624085 4281021750
0.28167573 0.61073452 0.22624709 4288718265
0.19309729 0.47776914 0.1567684 4281218361
0.1921398 0.47614589 0.15654808 4281022006
0.19098796 0.47491354 0.15627326 4281087287
0.27999893 0.61108357 0.22678694 4289572542
0.19093496 0.47653833 0.15669791 4281087799
0.18963626 0.4751347 0.15657306 4281087288
0.18838012 0.47350535 0.15647429 4281020983
0.18741466 0.47221634 0.15607522 4280955189
0.27833691 0.61160862 0.22791147 4293716981
0.18821858 0.47548258 0.15700229 4281021239
0.1872669 0.47386211 0.15678167 4280954933
0.18587667 0.47296649 0.15624791 4280823603
0.2773118 0.61151987 0.22962408 4289439152
0.2755937 0.61151826 0.22900079 4288321450
0.18479933 0.47337291 0.15675987 4280693041
0.27460805 0.61169291 0.23000796 4288125352
0.27212077 0.61133951 0.23032825 4287665316
0.27101272 0.61168951 0.23107794 4287401890
0.2694937 0.6110211 0.23118557 4286679453
0.26835614 0.61069328 0.23185456 4287206308
0.26613402 0.60940295 0.23131183 4288652974
0.26530299 0.60966551 0.23187411 4290164929
0.31079656 0.76084602 0.33374333 4281742902
0.3103745 0.75891316 0.33372295 4281742902
0.31024253 0.76102102 0.33411816 4281677109
0.30914435 0.75882447 0.33417282 4281742899
0.30735049 0.75970179 0.33428583 4281743155
0.30655923 0.75820911 0.33477449 4281677362
0.30505997 0.75978738 0.33532441 4281546546
0.3044132 0.75887996 0.3353211 4281546546
0.30422899 0.76004994 0.33588669 4281546546
0.30328822 0.75876158 0.33615255 4281809206
0.3029193 0.75776792 0.33596241 4282006327
0.42451704 0.58836871 0.14468743 4287005820
0.42353249 0.58739769 0.14432636 4287992206
0.42249325 0.58574843 0.14398481 4293848293
0.42132729 0.58411503 0.14397955 4294770681
0.42247006 0.58757305 0.14491679 4288978585
0.42119226 0.58605725 0.14443612 4293650911
0.42000809 0.58446223 0.14431028 4294836217
0.41865522 0.58288085 0.1441222 4294770681
0.41961506 0.58607119 0.14492244 4294967028
0.41833392 0.58494627 0.14475639 4294901752
0.41731218 0.58324528 0.14468297 4294770681
0.4163354 0.58217484 0.14453888 4294770682
0.41688573 0.58501041 0.14522827 4294901753
0.41560552 0.58388585 0.1450621 4294901753
0.41458786 0.5821864 0.14498827 4294770681
0.41361254 0.58111656 0.14484398 4294770681
0.41382718 0.58421385 0.14588524 4294901753
0.4128935 0.58306652 0.14536133 4294901753
0.41207018 0.58118165 0.14516367 4294770681
0.411042 0.57953054 0.14466174 4294770681
0.41160363 0.58315349 0.14597724 4294901753
0.41036448 0.5816313 0.14558224 4294901753
0.40940079 0.58014286 0.14506011 4294770681
0.4081822 0.57865101 0.14449331 4294770681
0.40721157 0.57706356 0.14430715 4294770681
0.40668312 0.5762713 0.14389609 4294770681
0.4075366 0.58059227 0.14564732 4294836217
0.40672079 0.57928288 0.14516853 4294770681
0.40584868 0.57810515 0.14461465 4294770681
0.40557247 0.57662213 0.1446476 4294770681
0.40470549 0.57988411 0.1462788 4294901753
0.40420878 0.57885057 0.14566104 4294836217
0.40390646 0.57714844 0.14577483 4294770681
0.40331388 0.58032376 0.14722039 4294901753
0.40281683 0.57879889 0.14722121 4294901753
0.40171227 0.58074397 0.14850527 4294901753
0.40184742 0.58014601 0.14769897 4294901753
0.40044194 0.58135295 0.14945404 4294901753
0.3988052 0.58178133 0.1511973 4294901753
0.39713699 0.58230835 0.15232603 4294901753
0.39524499 0.5818032 0.15317237 4294901755
0.39433256 0.58252001 0.15278353 4294901755
0.39271751 0.5820905 0.15366316 4294901753
0.39157626 0.58242923 0.15387803 4294901755
0.39048994 0.58181095 0.15384261 4294901755
0.38890815 0.58106798 0.1548169 4294901755
0.38641796 0.58036095 0.15530494 4294901755
0.38500431 0.58065933 0.15524293 4294901755
0.38265508 0.57915795 0.15503478 4294901755
0.38209841 0.57933384 0.15541142 4294901755
0.38101208 0.5787155 0.15537602 4294901755
0.37951094 0.57686168 0.15587594 4294901755
0.3789556 0.5770371 0.15625167 4294901755
0.37716728 0.57536387 0.15566826 4294901755
0.37525427 0.57412434 0.15413561 4294901755
0.37445629 0.57251406 0.15408298 4294901755
0.37379369 0.57131368 0.15385167 4294901755
0.3746976 0.57430017 0.15451226 4294901753
0.37390047 0.57268965 0.15445903 4294901753
0.37235975 0.5715977 0.15378672 4294901753
0.37136739 0.57059658 0.15322489 4294901753
0.37074545 0.56875944 0.15309593 4294901753
0.37071857 0.56972718 0.15388273 4294901753
0.37019014 0.56893492 0.15347166 4293388515
0.36751553 0.5673635 0.15244545 4288585376
0.36671928 0.56688493 0.15194935 4288322204
0.36535463 0.56635451 0.15210226 4287927444
0.3643181 0.56559837 0.15238521 4287007114
0.36262527 0.56529373 0.15240808 4286809736
0.36126059 0.56476331 0.15256099 4286942093
0.35757491 0.56356537 0.15361181 4287533458
0.35484776 0.56250542 0.15391739 4287861654
0.35398239 0.56193453 0.15337652 4287664788
0.35226727 0.561553 0.15418275 4287928473
0.34945741 0.56096023 0.15451208 4288191132
0.3471846 0.55957973 0.15544812 4282861129
0.34538138 0.55971253 0.1555084 4284045405
0.34435803 0.55866206 0.15572982 4281413944
0.34235513 0.55847341 0.15586455 4281216825
0.34091327 0.55901206 0.15656936 4282663749
0.34037662 0.55784708 0.15682711 4281282870
0.33846226 0.55786335 0.15668687 4281675061
0.33765191 0.55678803 0.15713245 4281545783
0.33643222 0.55561858 0.1570975 4281414707
0.33597878 0.55718184 0.15757813 4281807674
0.33495897 0.55567324 0.15757237 4281349174
0.33370936 0.5545603 0.15740259 4281283893
0.33297786 0.55600625 0.15752135 4281414710
0.33217064 0.55472565 0.15760832 4281415479
0.33098653 0.55350202 0.15770769 4281415479
0.33161196 0.55618137 0.15824009 4281742647
0.33088177 0.55497241 0.15825543 4281613115
0.32943049 0.55384874 0.15804464 4281415993
0.3281084 0.55440611 0.15863873 4281415994
0.32660416 0.55301607 0.15849935 4281349944
0.32554084 0.5513854 0.15831788 4281349688
0.32650641 0.55458921 0.15912645 4281678653
0.32527724 0.55350608 0.15904902 4281546810
0.32427317 0.55204487 0.15870829 4281349687
0.32354945 0.55041581 0.15838426 4281283895
0.32413018 0.55405784 0.15970697 4281809211
0.32265273 0.55228561 0.15925004 4281415223
0.32213634 0.55066657 0.15891367 4281349686
0.32120582 0.54891801 0.15817657 4281481273
0.32006776 0.54761481 0.15761438 4281547065
0.32097992 0.55270267 0.15995519 4281480762
0.32029137 0.55126977 0.15943606 4281349688
0.31936762 0.54969507 0.158678 4281415481
0.31848297 0.54785967 0.15848167 4281415480
0.31714845 0.54636282 0.15784742 4281283895
0.31599009 0.54513001 0.15735021 4281152566
0.31993446 0.55281931 0.16049136 4281349434
0.31873938 0.55170113 0.1601015 4281415226
0.31761217 0.55034786 0.15949453 4281349690
0.31669924 0.54855227 0.15919217 4281349688
0.31573045 0.54684263 0.15868245 4281349688
0.31467786 0.54530478 0.15804586 4281284151
0.3130911 0.54380763 0.15751831 4281218615
0.31203428 0.54222304 0.15669619 4281283897
0.31720513 0.55175847 0.16079718 4281481274
0.31649888 0.55069953 0.16024779 4281349434
0.3151612 0.5491991 0.15961203 4281283896
0.31388342 0.54761648 0.1591849 4281283895
0.31285474 0.54598802 0.15846571 4281415481
0.31202474 0.5442937 0.15802194 4281349689
0.3109481 0.5428704 0.15722495 4281283641
0.30952957 0.5413937 0.15651393 4281283641
0.30870837 0.53975654 0.15612829 4281217847
0.30782765 0.53843606 0.15544315 4281152054
0.30677083 0.53685147 0.15462103 4280954930
0.30571395 0.53526682 0.15379891 4281020723
0.3046571 0.53368223 0.15297678 4280954928
0.30354953 0.53227353 0.15231712 4281020721
0.30261803 0.53112894 0.15179446 4281218100
0.31271017 0.5480504 0.15972954 4281218359
0.31109416 0.54663783 0.15928209 4281415481
0.31021136 0.54531425 0.15859535 4281349688
0.30932856 0.54399055 0.15790862 4281283895
0.30828264 0.54224318 0.15708637 4281349432
0.30716747 0.54068124 0.15650955 4281283640
0.30624631 0.53910863 0.15575205 4281152310
0.30518779 0.53752154 0.15492862 4281152822
0.30412927 0.53593445 0.1541052 4281086515
0.30307072 0.5343473 0.15328176 4280954928
0.30204552 0.53272301 0.15256442 4281020721
0.30100361 0.53112489 0.15228206 4281086258
0.29976982 0.52963066 0.1518001 4280889135
0.30821526 0.54434228 0.15866189 4281283894
0.30715588 0.54275393 0.15783779 4281349686
0.30609652 0.54116553 0.15701371 4281349688
0.30456191 0.53947091 0.15630573 4281218359
0.30342114 0.53816468 0.1557422 4281218359
0.30236179 0.53657627 0.15491812 4281218101
0.30130243 0.53498793 0.15409404 4281086514
0.30024308 0.53339952 0.15326995 4281020721
0.29931957 0.53166354 0.15286985 4281086514
0.29843226 0.52989334 0.15257697 4280823343
0.29745004 0.52892464 0.15221679 4280954928
0.30089536 0.53639853 0.15539669 4281283895
0.30018911 0.53533959 0.15484729 4281020721
0.29855174 0.53375071 0.15426756 4281020464
0.2976903 0.53260344 0.15371312 4281020721
0.29685473 0.53109044 0.15312451 4280954928
0.29565036 0.52926022 0.15294784 4281086514
0.2964004 0.53269041 0.15432905 4281020721
0.29521891 0.53152525 0.15389574 4281086514
0.29412672 0.53003013 0.15343019 4281020721
0.29328135 0.52854145 0.15313521 4281152308
0.29263428 0.52724856 0.15291315 4281349688
0.29228252 0.5303055 0.15416193 4281086514
0.29160708 0.52895737 0.15373585 4281152564
0.29090014 0.52737218 0.15340915 4281218357
0.28991142 0.52619028 0.15321825 4281349686
0.28978062 0.52933311 0.15444227 4281218100
0.28889287 0.527839 0.15389094 4281283893
0.28793913 0.52630246 0.15373842 4281283893
0.28687474 0.52800757 0.15461074 4281283893
0.28616852 0.52694863 0.15406135 4281218100
0.28552073 0.52517146 0.15387565 4281415735
0.2847434 0.52398598 0.15364057 4281284408
0.28515694 0.52694768 0.15448897 4281283893
0.28371751 0.52579993 0.15417887 4281481274
0.2827726 0.52410662 0.15367211 4281218615
0.28184444 0.52266359 0.15380865 4281284408
0.28154483 0.52456325 0.15410805 4281415739
0.28015932 0.52323246 0.15382127 4281350201
0.27903339 0.52168322 0.1538761 4281350200
0.27755895 0.52225775 0.1542186 4281547322
0.27649257 0.52054179 0.15420622 4281350199
0.27524036 0.51931423 0.1539216 4281218613
0.2751016 0.52147067 0.15435863 4281679165
0.2738207 0.51972991 0.15418103 4281284406
0.27251753 0.51825595 0.15422671 4281152820
0.27191737 0.52023304 0.15471542 4281415479
0.27102032 0.51873082 0.15429653 4281349686
0.26961851 0.51693356 0.15439478 4281283895
0.26964292 0.51934904 0.15497027 4281349686
0.26838946 0.51778221 0.15454559 4281283893
0.26749963 0.51606286 0.15414451 4281349431
0.26661822 0.5147413 0.15345889 4281612088
0.26719195 0.51820028 0.15508777 4281283893
0.26585424 0.51669985 0.15445201 4281283894
0.26480326 0.51490611 0.15379725 4281284150
0.26396227 0.51335436 0.15335986 4281349430
0.26298678 0.51215506 0.15292451 4281481017
0.26305014 0.51502168 0.15429482 4281218615
0.26211643 0.51387435 0.15377091 4281284151
0.2613236 0.51230848 0.15330186 4281349688
0.26055843 0.510683 0.15295327 4281349945
0.2593632 0.50962174 0.15287901 4281415994
0.25989291 0.51281399 0.15386294 4281284408
0.2590169 0.51171714 0.15335502 4281218615
0.25799137 0.50989312 0.15306391 4281350201
0.25704327 0.50863391 0.15273251 4281415994
0.25607845 0.51042938 0.15356754 4281284152
0.25519115 0.50888443 0.15319619 4281415738
0.25423384 0.50724351 0.15295276 4281612860
0.25471255 0.51060444 0.15428627 4281218361
0.25351751 0.50948632 0.15389641 4281349947
0.25236303 0.50785637 0.15357009 4281612604
0.25101852 0.50618279 0.15365729 4281415481
0.2517049 0.50963157 0.1547804 4281284408
0.2507731 0.50841445 0.15434973 4281481274
0.24986485 0.50682265 0.15432113 4281546810
0.24882409 0.50591677 0.15437344 4281415479
0.24892467 0.5087471 0.15524906 4281480761
0.24808568 0.50753874 0.15493605 4281546297
0.24700691 0.50602084 0.15445511 4281480761
0.24597588 0.50441849 0.15437907 4281612860
0.24486826 0.5030098 0.1537194 4281547065
0.24670114 0.50768679 0.15534107 4281612860
0.24524029 0.50636256 0.15489869 4281415738
0.2443472 0.50486094 0.15452354 4281481531
0.24355607 0.50318456 0.15441506 4281810237
0.24308901 0.50530231 0.15496017 4281481274
0.24147297 0.5038898 0.15451272 4281875518
0.24078415 0.50231498 0.15412097 4281612345
0.23988004 0.50128883 0.15377806 4281546552
0.23947686 0.50291783 0.15457925 4281941053
0.23857614 0.50120854 0.1544009 4281481272
0.23749888 0.49968904 0.15417939 4281349942
0.23694339 0.50178063 0.15490958 4281678907
0.2359422 0.50009757 0.15489595 4281416505
0.23498602 0.4987776 0.15451318 4281350969
0.30938619 0.61348313 0.21401557 4282077302
0.3084307 0.61242634 0.21447316 4287996087
0.2342149 0.50072014 0.15521534 4281613115
0.23312546 0.49909011 0.15501161 4281547065
0.23226319 0.49771932 0.15481828 4281349686
0.3066 0.61233473 0.21427526 4287008164
0.23158613 0.49951681 0.15542062 4281415993
0.23030598 0.49808136 0.15512744 4281284920
0.22936419 0.4963969 0.15498635 4281153591
0.22883578 0.4956046 0.1545753 4281153333
0.30568093 0.61233574 0.21556506 4283851910
0.30417287 0.61206877 0.21531492 4284247445
0.22893964 0.49823403 0.15528856 4281285178
0.22767672 0.49735096 0.15511581 4281219128
0.22677131 0.49575827 0.15472914 4281153335
0.22611292 0.49454632 0.15488039 4281415993
0.30271393 0.61224407 0.21629812 4285628836
0.30137107 0.61188769 0.21568157 4291022051
0.22593199 0.49726117 0.1557827 4281218613
0.22497286 0.49620202 0.15534022 4281153334
0.22411707 0.49477336 0.15513627 4281350201
0.22311242 0.49357575 0.15537336 4281218361
0.30053529 0.61241782 0.21713501 4288456116
0.30014005 0.61206293 0.21634327 4290034894
0.22320265 0.49620035 0.15608853 4281349947
0.2223267 0.49510348 0.1555806 4281284154
0.22143149 0.49350673 0.15543003 4281152568
0.22038956 0.49251747 0.15567847 4281020982
0.29962608 0.61233008 0.2181246 4289641160
0.29823467 0.61223751 0.21729004 4289967554
0.21976708 0.49408063 0.15584497 4281283897
0.21888544 0.49281415 0.15569431 4281152567
0.21759316 0.4918429 0.15564734 4281218615
0.29680383 0.61211985 0.21825154 4286809762
0.2961368 0.61161822 0.21768224 4288388266
0.21703775 0.49301985 0.15615079 4281284408
0.21640666 0.49157783 0.1559374 4281218615
0.21577688 0.49013773 0.15572505 4281218615
0.29553413 0.61223686 0.2191079 4284574089
0.29464757 0.61166215 0.21868551 4287992482
0.21483931 0.49204773 0.15630282 4281152821
0.21399584 0.49073866 0.15628593 4281020980
0.21260022 0.48890308 0.15608098 4281086516
0.29316077 0.61170614 0.21968773 4288321453
0.29145917 0.61117291 0.21930629 4285625488
0.21211001 0.49098691 0.15660866 4280954929
0.21116713 0.48950091 0.15606269 4280955187
0.209748 0.48790258 0.1561498 4280758062
0.29056388 0.61117613 0.22058767 4285824919
0.20940641 0.48966154 0.15669161 4280954930
0.20846102 0.48834506 0.15630704 4280823342
0.20748107 0.48684677 0.15602279 4280889135
0.2066261 0.48599419 0.15628012 4280889648
0.28836772 0.61090994 0.2213044 4288195522
0.20571797 0.48754159 0.15655495 4280823344
0.20498605 0.48589185 0.15644276 4280758319
0.20355098 0.48440769 0.1563112 4280824369
0.28594655 0.61099136 0.22149529 4288523969
0.20440266 0.48771673 0.1572523 4280823857
0.20324153 0.48648101 0.15675388 4280823855
0.20214191 0.48488221 0.15653828 4280823856
0.20112072 0.48338488 0.15652078 4280823857
0.19994742 0.4820289 0.15593116 4280823600
0.28380939 0.61081433 0.22252837 4289246921
0.20056307 0.48524386 0.15689687 4280758064
0.1999041 0.4837887 0.15681973 4280823600
0.19850752 0.48250195 0.15638007 4280954929
0.1974684 0.48100016 0.1561567 4280889135
0.28219274 0.6110782 0.22360437 4287930292
0.19708432 0.48297057 0.15677346 4281020978
0.19576903 0.48145548 0.15639764 4281086516
0.19440936 0.47995943 0.15594338 4281152311
0.19362102 0.47859183 0.15585625 4281152568
0.27987728 0.6109857 0.22406091 4287929010
0.19444905 0.48188701 0.15679629 4281218102
0.19314551 0.4802635 0.15627241 4281152565
0.1920605 0.47901171 0.15608238 4281087030
0.19145352 0.4773581 0.15578561 4281021752
0.27848566 0.61142534 0.2250025 4292468202
0.19107278 0.47903186 0.15647818 4281021493
0.18976225 0.47774935 0.15597181 4280956214
0.18862265 0.47666547 0.15575461 4281022007
0.27709401 0.61186498 0.22594409 4288783019
0.18843681 0.47817752 0.15637006 4281021239
0.1871745 0.47664553 0.1561832 4280890165
0.18600295 0.47524786 0.15606548 4280823858
0.18530326 0.47418514 0.15584771 4280889650
0.27520061 0.61177719 0.22735034 4288059306
0.18551394 0.47691074 0.1565928 4280824627
0.18459247 0.47560981 0.15632626 4280627248
0.18348292 0.47421804 0.15606654 4280627248
0.27334717 0.61195111 0.22804965 4287797160
0.18285248 0.47561485 0.15668152 4280758832
0.18165167 0.47452736 0.15651152 4280692783
0.27073982 0.61140269 0.22880436 4287336611
0.18012315 0.474554 0.15698734 4280758064
0.26961303 0.61120087 0.22959211 4287139233
0.26803076 0.61036134 0.22925214 4287534502
0.26710972 0.61045212 0.23038973 4287929512
0.31009361 0.76340246 0.33339024 4281677109
0.30891338 0.76199096 0.33343384 4281677109
0.30852607 0.7607578 0.33328462 4281743155
0.30874488 0.76340121 0.33396038 4281677109
0.30747053 0.76228309 0.33382908 4281743155
0.30723923 0.76084459 0.33389905 4281743155
0.30568632 0.76260465 0.33461735 4281677620
0.30520245 0.7616936 0.33454213 4281546291
0.30434558 0.76286793 0.33539611 4281612339
0.30339825 0.76157457 0.33566064 4281546546
0.30274889 0.7606644 0.33565629 4281546546
0.42663047 0.59249562 0.1444001 4288255124
0.42592087 0.59143168 0.14384811 4288716186
0.42543671 0.59222871 0.14469174 4288847771
0.42484626 0.59126353 0.14439335 4287926666
0.42397949 0.58983183 0.14436987 4287334528
0.42233962 0.59063089 0.14472301 4289243040
0.42153659 0.58880204 0.14427249 4288057996
0.42040563 0.58724129 0.1441756 4291873473
0.41998607 0.58935022 0.14469351 4287400326
0.41882885 0.58751994 0.14476679 4292203468
0.41789782 0.58626652 0.1444566 4294901751
0.41724378 0.58828437 0.1450008 4292071876
0.41608575 0.58655888 0.1448584 4294901750
0.41538998 0.5852918 0.1447376 4294901753
0.41422558 0.58692521 0.14563973 4294901752
0.4133786 0.58553255 0.14558952 4294901753
0.4120962 0.58440477 0.14542167 4294901753
0.41263935 0.58725476 0.14612569 4294901753
0.4116852 0.58607584 0.1459225 4294901753
0.41061231 0.58437896 0.14557955 4294901753
0.41019735 0.58307701 0.14516193 4294901753
0.41035408 0.58636653 0.14638175 4294901753
0.40888628 0.5850361 0.14593725 4294901753
0.40833294 0.58332801 0.14561276 4294901753
0.4072918 0.58234644 0.14522867 4294901753
0.40629765 0.58077508 0.14496888 4294901753
0.40761182 0.58530068 0.14668903 4294901753
0.40665662 0.584207 0.14621717 4294901753
0.40558091 0.58275598 0.14595996 4294901753
0.40503961 0.58128023 0.14571367 4294901753
0.4036006 0.58334762 0.14682272 4294901753
0.40319961 0.58197033 0.14656381 4294901753
0.40223277 0.58356237 0.14824885 4294901753
0.40189281 0.58227366 0.14803502 4294901753
0.40083617 0.58400357 0.14919381 4294901753
0.40033689 0.58297938 0.14925937 4294901753
0.39916024 0.58453304 0.15032773 4294901753
0.39866292 0.58350819 0.15039197 4294901753
0.39778563 0.58493239 0.15100493 4294901753
0.39723155 0.58417696 0.15085921 4294901753
0.39517435 0.58387715 0.15158652 4294901754
0.39317062 0.58417332 0.15257595 4294901754
0.39252326 0.58380592 0.15233083 4294901754
0.39093235 0.58305901 0.15330572 4294901755
0.38984346 0.58243918 0.15327023 4294901755
0.38829941 0.58255106 0.15367636 4294901755
0.38708061 0.58234823 0.15436734 4294901755
0.38561308 0.58226746 0.15357456 4294901755
0.38424194 0.58173454 0.15372819 4294901755
0.38297302 0.58084732 0.15355462 4294901755
0.37953314 0.57862848 0.15458302 4294901755
0.37790993 0.57812619 0.15396826 4294901755
0.37728035 0.57677001 0.15404792 4294901755
0.37583745 0.57561952 0.1537371 4294901755
0.37527949 0.57579577 0.15411462 4294901753
0.37311774 0.57449168 0.15308543 4294901754
0.37231877 0.57287586 0.15302885 4294901754
0.36833265 0.56904888 0.15030089 4289045929
0.36988896 0.57075208 0.15235607 4294374382
0.36852098 0.56993133 0.15150663 4289440428
0.36738798 0.56883842 0.15120707 4288651171
0.36609128 0.56809658 0.15183657 4288322204
0.36484352 0.56766605 0.15112029 4288191130
0.36404181 0.56718415 0.15062381 4287599249
0.36233991 0.5669167 0.15113026 4287072908
0.36129951 0.5661183 0.15093109 4286744714
0.36053571 0.56700367 0.15196393 4287270288
0.35959297 0.56591046 0.15187284 4287271057
0.35872084 0.56464219 0.15218993 4287336849
0.35779345 0.56593782 0.1522712 4287665044
0.35679552 0.56503707 0.15230945 4287861910
0.35598499 0.5635789 0.15249649 4288059032
0.35505116 0.56487197 0.15257849 4288059032
0.35401076 0.5640735 0.1523793 4287861910
0.35230884 0.56380612 0.15288575 4288257952
0.35195404 0.56327409 0.15260975 4288323745
0.35014564 0.56264794 0.1537735 4288981675
0.34874561 0.56218308 0.15376903 4288915881
0.34746563 0.56173611 0.15404926 4288651939
0.34600657 0.56111854 0.15407595 4288455074
0.34447557 0.56090295 0.15477647 4287796635
0.34314075 0.56122792 0.15470244 4288125341
0.34228596 0.55998653 0.15496942 4284835179
0.34103289 0.5606057 0.1550965 4288387997
0.33935386 0.55930573 0.15566562 4283781976
0.33797601 0.55924821 0.15611309 4286938243
0.33663982 0.55909526 0.15574662 4285688944
0.33514631 0.55881441 0.15660392 4287400590
0.33394241 0.55737042 0.15685642 4281413941
0.33387041 0.55900407 0.15684631 4289374892
0.33262169 0.55783445 0.15701629 4282531650
0.33085135 0.55806613 0.15754193 4285952629
0.32988217 0.55676967 0.15732324 4281742649
0.3284198 0.55700141 0.15793546 4282597960
0.32735485 0.55559635 0.15822457 4281415740
0.32721609 0.55740291 0.15838133 4285229165
0.32591578 0.55596679 0.15845604 4281743419
0.32417017 0.55655938 0.15914527 4284703591
0.32304713 0.5547083 0.15933728 4281743163
0.32233918 0.55364686 0.15878658 4281480504
0.32266963 0.55642396 0.15952227 4283452497
0.32148483 0.55540788 0.15965973 4281939774
0.32069105 0.55391055 0.15969577 4281480507
0.31936803 0.55553484 0.16020797 4282334018
0.31877321 0.55430013 0.16007037 4281612090
0.31795526 0.55284721 0.16000232 4281481274
0.31685427 0.5545578 0.16048963 4281612092
0.31603378 0.55323541 0.16037731 4281612862
0.31511867 0.55143017 0.16006818 4281415227
0.31395477 0.55019152 0.15956855 4281349433
0.31342381 0.54939544 0.15915553 4281218102
0.31451789 0.55384678 0.1609093 4281810496
0.31363773 0.55274469 0.16039895 4281678655
0.31252486 0.55119169 0.15992576 4281612345
0.31171992 0.54944348 0.15957816 4281283894
0.31124598 0.54815584 0.15908454 4281283895
0.30981129 0.54970425 0.15980811 4281349686
0.3090539 0.54837084 0.15939789 4281349685
0.30808491 0.54665381 0.15888236 4281349687
0.30698434 0.54513544 0.15827639 4281283895
0.30603248 0.54337752 0.15746367 4281283894
0.30497059 0.54178542 0.15663764 4281350201
0.30408567 0.54045862 0.15594926 4281284408
0.30690449 0.54852325 0.15986787 4281349684
0.3061949 0.5474593 0.15931587 4281283892
0.30536801 0.54563969 0.15854548 4281283895
0.30465153 0.54415137 0.15789735 4281218102
0.30360031 0.5425005 0.15754557 4281349690
0.30251378 0.54063392 0.15675543 4281284154
0.30162886 0.53930712 0.15606706 4281218360
0.30074397 0.53798032 0.15537871 4281152566
0.2994031 0.53647637 0.15474142 4281217845
0.29851821 0.53514957 0.15405305 4281085744
0.30411416 0.54586244 0.1589175 4281218357
0.30284527 0.54497516 0.15874393 4281218615
0.30195826 0.54364526 0.15805392 4281284153
0.30084172 0.54163587 0.15747906 4281284154
0.29995492 0.53983599 0.15719965 4281152568
0.29907003 0.53850913 0.15651129 4281087030
0.29800817 0.53691703 0.15568526 4281152309
0.29694629 0.53532487 0.15485922 4280954671
0.29585892 0.53382111 0.1541148 4281020721
0.2947205 0.53249407 0.15353356 4280954928
0.30017936 0.5438208 0.15894791 4281284154
0.29921597 0.54257941 0.15836118 4281218105
0.29815158 0.5409835 0.1575332 4281152055
0.29708716 0.53938758 0.1567052 4281020982
0.29616112 0.53763831 0.15629561 4280824117
0.29516727 0.53596783 0.15567791 4280889650
0.29410455 0.53437442 0.15485123 4280955185
0.29314858 0.53266937 0.15433973 4280954928
0.29218748 0.53143096 0.15375438 4281086514
0.29675335 0.54142517 0.15847927 4281086262
0.29568893 0.53982925 0.15765128 4280955189
0.2943449 0.53832173 0.15701248 4280823860
0.29328051 0.53672582 0.15618446 4280890164
0.29221609 0.5351299 0.15535647 4281020979
0.29134676 0.53349483 0.15475191 4280954928
0.29036266 0.53179669 0.15455034 4281086514
0.2892693 0.53029674 0.15408136 4281152307
0.28808498 0.52912879 0.15364705 4281283893
0.29152745 0.53663552 0.15685456 4280955187
0.29081789 0.53557158 0.15630256 4280955186
0.28993088 0.53424168 0.15561256 4280954930
0.28876424 0.53300011 0.15511174 4281020722
0.28774229 0.53107512 0.15449297 4281152308
0.28656894 0.529342 0.15412256 4281218102
