# .PCD v0.7 - Point Cloud Data file format
VERSION 0.7
FIELDS x y z rgb
SIZE 4 4 4 4
TYPE F F F U
COUNT 1 1 1 1
WIDTH 1095
HEIGHT 1
VIEWPOINT 0 0 0 1 0 0 0
POINTS 1095
DATA ascii
0.34153742 0.92434549 0.15947519 4282928976
0.34247673 0.91615754 0.15850821 4282994509
0.34261763 0.91492933 0.15836316 4282927946
0.34294641 0.91206354 0.15802473 4283125321
0.34318122 0.91001654 0.15778299 4283256392
0.34341604 0.90796953 0.15754125 4283124808
0.34360391 0.90633196 0.15734784 4282664775
0.34379178 0.90469432 0.15715444 4282731340
0.34447479 0.90220487 0.15783598 4282928461
0.34528166 0.90023488 0.15767121 4282797132
0.34552163 0.8982141 0.15817678 4282796617
0.34548432 0.89686906 0.15818135 4283125068
0.34252435 0.90735835 0.15828946 4283190348
0.34266523 0.90613019 0.15814441 4282862155
0.34256217 0.90367496 0.15818262 4282797134
0.34250912 0.90190172 0.15819196 4282731340
0.34284684 0.90011811 0.158306 4282796875
0.3433485 0.89781451 0.15887207 4282862667
0.3444123 0.89563584 0.15907077 4283125580
0.34444571 0.89386028 0.15900634 4283125069
0.34444067 0.8920486 0.15897398 4282993739
0.34467453 0.8900097 0.15873319 4283058762
0.34490845 0.88797086 0.1584924 4283124555
0.34514233 0.88593197 0.15825161 4283190348
0.34537625 0.88389313 0.15801084 4282992971
0.34556335 0.88226205 0.1578182 4283058764
0.34570369 0.88103873 0.15767373 4282993739
0.34117949 0.89951843 0.15927784 4282862153
0.3414143 0.89747143 0.1590361 4282993482
0.34251782 0.89532888 0.15980412 4282927942
0.34285605 0.89355397 0.15991792 4283059528
0.34319404 0.89178067 0.16003186 4282862153
0.34342796 0.88974178 0.15979107 4282927946
0.34366181 0.88770294 0.15955028 4282993482
0.34389573 0.88566405 0.15930949 4282993483
0.34397951 0.88376033 0.15876128 4282927946
0.34431678 0.88199407 0.15887609 4282927945
0.34429491 0.88009018 0.15866831 4282862149
0.34436047 0.87794828 0.15842828 4282993478
0.34462574 0.87596023 0.15849036 4282927429
0.34462902 0.87370467 0.15844189 4283190601
0.34481618 0.87207353 0.15824926 4282927429
0.33970895 0.89836341 0.16050877 4283058758
0.33984986 0.89713514 0.16036372 4283058758
0.34011352 0.89542627 0.16032331 4283059015
0.34029627 0.89342982 0.16023663 4282862665
0.34077123 0.89141774 0.16002548 4282796362
0.34076566 0.88933784 0.15975338 4282796363
0.34124053 0.88732719 0.15954238 4282862412
0.34131581 0.88553566 0.1593167 4282665803
0.34142286 0.88360912 0.15907684 4282731596
0.34189746 0.8816005 0.15886609 4282731336
0.3418923 0.87951714 0.1585936 4282796616
0.34293431 0.87746876 0.15897775 4282927688
0.34336057 0.8755486 0.15903535 4282862151
0.34358123 0.87360042 0.15900484 4282927686
0.34384695 0.87161452 0.15906668 4282862148
0.34385023 0.86935896 0.1590182 4282993733
0.34403735 0.86772788 0.15882558 4283124806
0.33878613 0.89522856 0.16123241 4282861383
0.33902097 0.89318156 0.16099067 4282862155
0.33925581 0.89113456 0.16074893 4282795849
0.33949065 0.88908762 0.16050719 4282795594
0.33972546 0.88704062 0.16026545 4282927950
0.34139219 0.8770861 0.15929955 4282731596
0.34121689 0.87505686 0.1591263 4282731336
0.34166843 0.87307322 0.15942083 4282862920
0.3421613 0.87118793 0.15955694 4282797381
0.34245226 0.86921674 0.15976952 4282928965
0.34263951 0.86758459 0.15957676 4283060039
0.34302464 0.86542106 0.15964267 4283257419
0.34325856 0.86338216 0.15940189 4282731852
0.3433989 0.86215883 0.15925741 4282599753
0.33988288 0.87448967 0.15987706 4282927947
0.33987781 0.87267077 0.15984456 4282796873
0.34005964 0.87105238 0.15998539 4282797128
0.33988151 0.86913997 0.16014555 4282797127
0.34038094 0.86712891 0.16024217 4282927684
0.34119681 0.86506307 0.16023852 4283322187
0.34134755 0.86300564 0.16000186 4283124556
0.34184977 0.86105222 0.15989913 4283059275
0.34177619 0.8590486 0.1597022 4282927945
0.3424072 0.85711217 0.15947531 4282862411
0.34294754 0.85495877 0.15949662 4282665290
0.34313467 0.85332763 0.15930399 4282731339
0.3426517 0.85197037 0.15968846 4282599753
0.34709579 0.81323183 0.15511355 4294901751
0.34728292 0.81160074 0.15492092 4294836214
0.34751683 0.80956185 0.15468013 4294901749
0.34770393 0.80793077 0.15448751 4294901749
0.3386161 0.86876392 0.16084167 4282993995
0.33885092 0.86671692 0.16059992 4283386953
0.33877286 0.86460268 0.1606237 4283387467
0.33900768 0.86255574 0.16038196 4283059271
0.33919555 0.8609181 0.16018857 4282993478
0.33943036 0.85887116 0.15994683 4283059525
0.34004453 0.85664219 0.15990365 4283059013
0.34035683 0.85485989 0.15982653 4282927427
0.34076446 0.85305595 0.15978661 4282927686
0.34147418 0.8508867 0.1603422 4282730823
0.3420442 0.84891504 0.16014478 4282205766
0.34592694 0.81506974 0.15614775 4294770682
0.34592992 0.81333125 0.15592219 4294770682
0.34588721 0.8114202 0.15566951 4294770682
0.34612125 0.80937994 0.15542859 4294770681
0.34653017 0.80741435 0.15521537 4294770681
0.34700289 0.80569094 0.15504014 4294770681
0.34718999 0.80405986 0.1548475 4294770681
0.33874241 0.85368931 0.16042872 4282796610
0.33888331 0.85246116 0.16028368 4282796867
0.33907118 0.85082352 0.16009028 4282731333
0.34009996 0.84850919 0.16080903 4282336833
0.34083563 0.8463273 0.16112326 4282271040
0.34059533 0.84484315 0.16129817 4282336832
0.34418157 0.8163659 0.15766272 4294770683
0.34432188 0.81514263 0.15751825 4294770683
0.34424147 0.81332141 0.15689269 4294770683
0.34377661 0.81102437 0.15570912 4294770683
0.34431022 0.80880809 0.15608546 4294770683
0.34478369 0.80708164 0.15590954 4294770683
0.34514612 0.80552292 0.15574412 4294770683
0.34567851 0.80331713 0.1561217 4294770683
0.34591243 0.80127829 0.15588093 4294770683
0.34595487 0.79931766 0.15580502 4294770683
0.34606856 0.79713356 0.15566382 4294770683
0.34630248 0.79509467 0.15542303 4294770683
0.3465364 0.79305583 0.15518224 4294770683
0.3467235 0.79142475 0.15498962 4294770683
0.34680939 0.78945875 0.15443844 4293059294
0.3471913 0.78734702 0.15450805 4291873736
0.3473784 0.78571588 0.15431543 4291611077
0.33781961 0.85055453 0.16115236 4282731846
0.33805445 0.84850752 0.16091062 4282402625
0.33828276 0.84617263 0.16154496 4282336575
0.33939549 0.84416741 0.16230789 4282336321
0.33953583 0.84294409 0.16216341 4282270784
0.34257653 0.81643879 0.15903321 4294770683
0.34250891 0.81457835 0.15817688 4294770683
0.34197831 0.81273419 0.1572777 4294770683
0.34222782 0.81093103 0.15659015 4294770683
0.34229729 0.80872864 0.15648632 4294770683
0.34248513 0.80709106 0.15629292 4294770683
0.34281987 0.80498886 0.15625702 4294770683
0.34334025 0.80295902 0.15626866 4294770683
0.3441292 0.80106413 0.15674031 4294770683
0.34458807 0.79890448 0.15696248 4294770683
0.34482196 0.79686558 0.1567217 4294770683
0.34490636 0.79490292 0.15617174 4294770683
0.34495404 0.79295671 0.155544 4294770683
0.34446561 0.79105067 0.15471707 4294770683
0.34470031 0.78900504 0.15447554 4291940554
0.34475222 0.78708941 0.15411857 4291150270
0.34528136 0.78508812 0.15402582 4291084736
0.34618956 0.78310424 0.15461931 4291281859
0.34584251 0.78150576 0.15422575 4291150527
0.34652185 0.77926433 0.15491541 4291151043
0.34886086 0.75887567 0.15250757 4290624183
0.34904796 0.75724459 0.15231495 4293584608
0.34959355 0.75527269 0.15180968 4294901751
0.34956107 0.75371522 0.15114854 4294901751
0.34979516 0.75167435 0.15090753 4294901749
0.34993678 0.74949688 0.15139996 4294901751
0.3501707 0.74745798 0.15115918 4294901751
0.35040459 0.74541914 0.15091839 4294901750
0.33698496 0.84408098 0.16206191 4282205246
0.33785716 0.84227365 0.16259579 4282205246
0.33848885 0.84037918 0.16300452 4282270526
0.33849216 0.83812362 0.16295604 4282139453
0.34078437 0.81814271 0.16059636 4294770683
0.34087861 0.81639767 0.15982336 4294770684
0.34059405 0.8144514 0.15878528 4294770683
0.34021616 0.81289577 0.15834577 4294770683
0.34077978 0.80798298 0.15776558 4294770683
0.34092069 0.80675477 0.15762053 4294770683
0.34115553 0.80470777 0.15737879 4294770683
0.34167776 0.80257052 0.15715295 4294770683
0.34234351 0.80084944 0.15760188 4294770683
0.34272808 0.79872745 0.15766902 4294770683
0.34296229 0.79668587 0.15742792 4294770683
0.34309658 0.79469502 0.15698098 4294770683
0.34313062 0.79275233 0.15632842 4294770683
0.34275237 0.79078823 0.15573494 4294770681
0.34410667 0.7830084 0.15486048 4290821564
0.34443834 0.78096473 0.15508388 4290953148
0.34566793 0.77891368 0.15563667 4290953662
0.34550914 0.77695751 0.15573251 4290756286
0.34574303 0.77491868 0.15549172 4290690492
0.34628859 0.77294677 0.15498647 4290624697
0.34634325 0.77107829 0.154902 4290492853
0.34644476 0.76880205 0.15476938 4290492597
0.34663185 0.76717097 0.15457675 4290295218
0.34686577 0.76513213 0.15433596 4290031790
0.34709966 0.76309323 0.15409517 4290163376
0.34733358 0.76105434 0.15385439 4290295732
0.34779081 0.75892425 0.15342124 4290164404
0.34750599 0.75707924 0.15275049 4293321693
0.3477402 0.75503767 0.15250938 4294901752
0.34740633 0.75323957 0.15133381 4294901753
0.34787878 0.75127721 0.15112576 4294901753
0.34839597 0.74932128 0.15183428 4294901753
0.34863019 0.7472797 0.15159319 4294901753
0.34946963 0.74521816 0.15171181 4294901753
0.34929833 0.74392784 0.15183181 4294901753
0.33594289 0.84176129 0.16257511 4282271039
0.33630827 0.83960307 0.16324218 4282204991
0.33670247 0.83779538 0.16334923 4282139455
0.33705169 0.83582753 0.16380951 4282270528
0.33709005 0.83364397 0.16406129 4282598211
0.33868057 0.81977963 0.16242395 4291478982
0.33916104 0.81805748 0.16154106 4294836219
0.3388963 0.81642473 0.16056541 4294770683
0.33854985 0.81484479 0.15980653 4294770683
0.34031075 0.80368721 0.15807867 4294770683
0.34000582 0.80215347 0.15830773 4294770683
0.34006071 0.80027753 0.15822293 4294770683
0.34044701 0.79815203 0.15828861 4294770683
0.34058082 0.79615766 0.15784194 4294770683
0.34076518 0.79413652 0.15749769 4294770683
0.34108606 0.79273731 0.1571957 4294770683
0.34298787 0.78035152 0.15532279 4290821562
0.34393722 0.7785843 0.15579173 4290756539
0.34322295 0.77662039 0.15583549 4290690490
0.34383282 0.77465469 0.15566975 4290559160
0.34385616 0.77277601 0.15541469 4290229938
0.34409058 0.7707321 0.15517326 4290492598
0.3443251 0.76868814 0.15493192 4290164145
0.34459645 0.76673746 0.15469749 4289900716
0.3449446 0.76473504 0.15450604 4289834666
0.34498164 0.76296508 0.15425605 4289769129
0.34521616 0.76092112 0.15401471 4289966508
0.34539497 0.75889677 0.15365684 4290032559
0.34510171 0.75713444 0.15304972 4292794580
0.34589976 0.75496882 0.15232517 4294901752
0.3461346 0.75292182 0.15208343 4294901753
0.34655726 0.74923724 0.15164828 4294901753
0.34640905 0.74680293 0.15210107 4294901753
0.34704509 0.74497837 0.15213187 4294901753
0.3476848 0.74313438 0.15253471 4294901753
0.34797394 0.74155408 0.15291336 4294901753
0.33491468 0.83706808 0.16379526 4282073407
0.33523014 0.83532375 0.16410433 4282203967
0.33537385 0.83344376 0.16439439 4282664005
0.33565995 0.83124095 0.16470663 4282992713
0.33576629 0.82938027 0.16444679 4282861640
0.33695146 0.82138342 0.16360265 4283123526
0.33696705 0.81955576 0.16275427 4290491571
0.33712119 0.81776434 0.16190584 4294901499
0.33693048 0.81638449 0.16121896 4294770683
0.33880916 0.80000854 0.15928501 4294770683
0.33873108 0.7978943 0.15930879 4294770683
0.33896589 0.7958473 0.15906706 4294770683
0.3392894 0.7939592 0.1587529 4294770683
0.33965454 0.79263937 0.15841474 4294770683
0.34575236 0.74252909 0.15302065 4294901753
0.34601846 0.74055535 0.15350948 4294901753
0.34632438 0.73890322 0.15382858 4294901753
0.34683672 0.73754919 0.15380229 4294901753
0.33351845 0.83494776 0.16450509 4281876543
0.33370635 0.83331019 0.16431171 4282598470
0.33386236 0.83104551 0.16479005 4282927177
0.33396885 0.82918018 0.16452999 4282665032
0.33512673 0.82722491 0.16516773 4282468167
0.33545822 0.82534748 0.16495652 4282336325
0.33538336 0.82329035 0.16455626 4282336323
0.33561993 0.82148337 0.16413008 4282729540
0.33503407 0.81950063 0.16289961 4289372837
0.335538 0.81734365 0.1624261 4294901755
0.3377924 0.79769254 0.16010536 4294770683
0.33802724 0.79564553 0.15986362 4294770683
0.33821511 0.79400796 0.15967022 4294770683
0.34417981 0.74201435 0.15352993 4294901753
0.34427881 0.74024969 0.15406705 4294901754
0.34515533 0.73844337 0.15472874 4294901753
0.3454577 0.73704386 0.15496832 4294901754
0.34674445 0.72165185 0.15355915 4287992711
0.34688479 0.72042853 0.15341468 4287860626
0.34707192 0.71879745 0.15322205 4287269261
0.3478668 0.71664035 0.15250038 4287138446
0.34801534 0.71487695 0.15189974 4287467153
0.34834772 0.71282226 0.15186675 4287335566
0.3480075 0.71064192 0.15225892 4287335309
0.34814784 0.70941859 0.15211445 4287401872
0.33268958 0.83099419 0.16513206 4282861896
0.3329244 0.82894719 0.16489032 4282665544
0.33362895 0.826608 0.16555649 4282468680
0.33326891 0.82505089 0.16517487 4282337093
0.33389461 0.82302517 0.16481924 4282467394
0.33381677 0.8211686 0.16397169 4283189317
0.33400464 0.81953102 0.16377829 4286609528
0.34262487 0.73991823 0.1548138 4294901755
0.34297401 0.73839808 0.15501104 4294901755
0.34385365 0.73659563 0.15567014 4294901755
0.34580952 0.72145087 0.15435255 4287993224
0.34594986 0.72022754 0.15420808 4287532431
0.34573808 0.71826553 0.15303448 4287203466
0.34551117 0.71617961 0.15274765 4287006085
0.34540221 0.71459049 0.15193206 4287203207
0.34593332 0.71249986 0.1523131 4287203464
0.34662867 0.71050239 0.15211768 4287137672
0.34730646 0.7084021 0.15281153 4287203723
0.34754035 0.70636326 0.15257075 4287072137
0.34768072 0.70513994 0.15242627 4286940551
0.34128574 0.73929483 0.15594341 4294901755
0.34167644 0.73780429 0.15623727 4294901755
0.34236568 0.73584604 0.15699716 4294901755
0.34275427 0.73416471 0.15721592 4294901755
0.34365889 0.7234956 0.1562283 4294901753
0.3441577 0.72193152 0.15577121 4291611840
0.34409165 0.71994603 0.15491097 4287531659
0.34387717 0.71798062 0.15373972 4287203463
0.34364989 0.71589184 0.15345307 4286940547
0.34383777 0.71425426 0.15325966 4287006084
0.34407261 0.71220726 0.15301791 4287137925
0.34476894 0.71020716 0.1528217 4286874752
0.3450036 0.70816153 0.15258013 4287071620
0.3455354 0.70608103 0.15296069 4287005829
0.34587169 0.70443004 0.15307857 4287269002
0.34620491 0.70237881 0.15304489 4286873988
0.34650302 0.70037425 0.15333432 4286545536
0.34655926 0.69821364 0.15324259 4286742914
0.34679317 0.69617474 0.1530018 4286677121
0.34702709 0.6941359 0.152761 4286742914
0.34726098 0.69209701 0.15252022 4287137671
0.33990911 0.73732096 0.15707764 4294901755
0.34030649 0.73562443 0.15801884 4294901755
0.34124282 0.73342204 0.15849011 4294901755
0.34241229 0.72322768 0.15728618 4294901754
0.34188408 0.72160327 0.1565354 4291282366
0.34161577 0.71964955 0.15526417 4287465098
0.34211653 0.71807921 0.15480524 4286940551
0.34333766 0.70743483 0.15354818 4286939778
0.34352553 0.70579726 0.15335478 4287070853
0.34353504 0.70403743 0.15331104 4287136903
0.34393421 0.7020157 0.15380597 4286939523
0.34416875 0.69997138 0.15356454 4286742143
0.34450257 0.69791937 0.15353027 4286677121
0.34554657 0.69590682 0.15405966 4286742914
0.34578046 0.69386792 0.15381889 4286742914
0.34601438 0.69182909 0.1535781 4287137671
0.34620148 0.690198 0.15338548 4289767852
0.34638861 0.68856686 0.15319285 4294901752
0.33856383 0.73514497 0.15874447 4294901755
0.33930215 0.73317593 0.159045 4294901755
0.34018335 0.73152298 0.15935536 4294901755
0.34041488 0.72477239 0.15836389 4294901755
0.34035033 0.72338712 0.15773371 4294901755
0.33976951 0.72176969 0.15688188 4292466901
0.3425405 0.69761515 0.15402929 4286545534
0.34323782 0.69562477 0.15383238 4286414205
0.3434256 0.69398826 0.15363915 4286545791
0.34366027 0.69194257 0.15339756 4287071621
0.34411925 0.68988717 0.15362167 4290360503
0.34471881 0.68795139 0.15394735 4294901754
0.34530321 0.6859659 0.154066 4294901754
0.34525138 0.68456197 0.15408179 4294901755
0.337062 0.73419201 0.15944277 4294901755
0.33731812 0.73293757 0.1595275 4294901755
0.33835122 0.73091668 0.1602485 4294901755
0.33859411 0.72867441 0.16065323 4294901755
0.33878121 0.72704333 0.16046061 4294901755
0.33897746 0.72522974 0.1595992 4294901755
0.33864298 0.72320551 0.15787183 4294901755
0.34230635 0.69127244 0.15410063 4287334020
0.34249419 0.68963486 0.15390724 4291478209
0.34295622 0.68728298 0.15434189 4294901753
0.34371409 0.68552148 0.1549743 4294901754
0.34391752 0.68394101 0.15520692 4294901754
0.33612332 0.73399025 0.16023934 4294901755
0.33581832 0.73245651 0.16046841 4294901755
0.33597615 0.7305584 0.16058755 4294901755
0.33711553 0.72845501 0.16125265 4294901755
0.33730283 0.72682226 0.16105983 4294901755
0.33698818 0.7251305 0.1603739 4294901755
0.34119186 0.68660045 0.15528534 4294901752
0.34138855 0.68513018 0.15563548 4294901753
0.34207383 0.68337494 0.15611078 4294901753
0.34241554 0.68144548 0.15643753 4294901753
0.34522235 0.65697902 0.15354812 4294770681
0.34536266 0.65575576 0.15340365 4291414212
0.34559658 0.65371686 0.15316287 4286873215
0.3458305 0.65167797 0.15292208 4286413178
0.34606436 0.64963913 0.15268129 4286413947
0.34629828 0.64760023 0.1524405 4286677373
0.34653217 0.6455614 0.15219973 4286611580
0.34676608 0.6435225 0.15195894 4286677120
0.34695318 0.64189142 0.15176632 4286808706
0.3347156 0.72949278 0.161349 4294901755
0.33540198 0.72828346 0.16139635 4294901755
0.33558968 0.7266475 0.16120315 4294901755
0.3357304 0.72542048 0.16105825 4294901755
0.33969402 0.68609655 0.15622403 4294901753
0.33964202 0.68468702 0.15623988 4294901753
0.34045902 0.682697 0.15681721 4294901753
0.3410365 0.68094015 0.15760356 4294901753
0.34204257 0.6679948 0.15648334 4294901753
0.3421829 0.66677147 0.15633886 4294901753
0.34237006 0.66514039 0.15614623 4294901753
0.34316492 0.66298336 0.15542457 4294770681
0.34338576 0.66119033 0.15498076 4294770681
0.34354439 0.6591441 0.15458494 4294770681
0.34355345 0.65708101 0.15387824 4294836215
0.34351593 0.65542358 0.15321946 4290229422
0.34375048 0.65337932 0.15297803 4286346614
0.34398499 0.65133506 0.1527366 4286084212
0.34432334 0.6494149 0.1525187 4285953397
0.34430191 0.64739656 0.15226136 4286414205
0.34490392 0.6453445 0.15226966 4286611582
0.34521821 0.64337939 0.15271294 4286611837
0.34555727 0.64159817 0.15251282 4286545789
0.34579137 0.63955796 0.15227193 4286479996
0.34609988 0.63753188 0.15218681 4286414203
0.34640828 0.63550687 0.15210184 4286479741
0.3466422 0.63346797 0.15186106 4286413948
0.34687608 0.63142914 0.15162027 4286282362
0.34711 0.62939024 0.15137948 4286282362
0.3472971 0.62775916 0.15118685 4286216569
0.34753099 0.62572026 0.15094607 4286480000
0.34714159 0.62354743 0.15123422 4287927446
0.34737548 0.6215086 0.15099345 4294901751
0.33863035 0.68418992 0.15709272 4294901753
0.33886191 0.68233228 0.15764633 4294901753
0.3389309 0.68064201 0.15829808 4294901754
0.33953291 0.67873675 0.15884145 4294901755
0.34004748 0.67425126 0.15831172 4294901755
0.34023461 0.67262012 0.1581191 4294901755
0.34046853 0.67058128 0.15787831 4294901755
0.34088165 0.66837204 0.15748121 4294901754
0.34124798 0.66657054 0.15713227 4294901754
0.3414351 0.66493946 0.15693964 4294901754
0.34159312 0.66289496 0.15654439 4294836218
0.34136119 0.66070926 0.15586539 4294770682
0.34132323 0.65882295 0.15526812 4294770682
0.34119546 0.65690607 0.15457155 4294770681
0.34174067 0.65521425 0.15385309 4290097836
0.34219974 0.65307564 0.15341821 4285820272
0.34243459 0.65102863 0.15317647 4285755250
0.34262246 0.64939106 0.15298308 4285690482
0.3428573 0.64734405 0.15274133 4285953654
0.34304515 0.64570647 0.15254794 4286414205
0.34301406 0.64318281 0.15252337 4286545534
0.3432489 0.64113581 0.15228163 4286545534
0.34348372 0.63908881 0.15203989 4286545791
0.34355524 0.637003 0.15237486 4286414205
0.34404323 0.63511318 0.15246806 4286216826
0.34402171 0.63308978 0.1522107 4286282362
0.34436154 0.63130689 0.15200996 4286150263
0.34459603 0.62926263 0.15176854 4286018932
0.34483057 0.62721837 0.15152712 4286019188
0.34516874 0.6253022 0.15130942 4286611327
0.34514761 0.62327534 0.15105166 4288585376
0.34586021 0.6212728 0.15129524 4294901754
0.34628063 0.61942595 0.15135932 4294901753
0.34686154 0.61763763 0.15135343 4294901753
0.34700191 0.61641431 0.15120897 4294901753
0.33716115 0.68035573 0.15883157 4294901755
0.33813211 0.67846799 0.15959269 4294901755
0.33883187 0.67649692 0.15939407 4294901755
0.33906576 0.67445809 0.15915328 4294901755
0.33929968 0.67241919 0.15891249 4294901755
0.33953357 0.67038029 0.15867172 4294901755
0.33976746 0.66834146 0.15843092 4294901755
0.33950517 0.66649902 0.15817919 4294901755
0.34018847 0.66467148 0.15799752 4294901755
0.33965296 0.66253167 0.15709648 4294901755
0.33956996 0.660528 0.15660097 4294770683
0.33930504 0.65874583 0.1560021 4294770683
0.33958152 0.65726715 0.15573631 4294770683
0.34215409 0.63670558 0.15312575 4286479998
0.34234196 0.635068 0.15293236 4286216826
0.3425768 0.633021 0.15269062 4286150776
0.34281161 0.63097399 0.15244886 4286018420
0.34304646 0.62892699 0.15220712 4285755248
0.3429684 0.62681276 0.1522309 4285887346
0.34324491 0.62533408 0.15196511 4286479997
0.34370399 0.62319541 0.15153025 4289111461
0.3439388 0.62114841 0.15128849 4294901755
0.34445602 0.61893648 0.15155372 4294901754
0.34470636 0.61713713 0.15142897 4294901754
0.34523875 0.61517882 0.1518115 4294901754
0.34557503 0.61358887 0.15193062 4294901754
0.33565816 0.67935616 0.15952998 4294901754
0.33626354 0.67813092 0.16030331 4294901754
0.33696425 0.6761573 0.16010383 4294901754
0.33719844 0.67411572 0.15986273 4294901754
0.33743265 0.67207414 0.15962163 4294901754
0.33766687 0.67003262 0.15938053 4294901754
0.33785424 0.66839933 0.15918764 4294901754
0.33783582 0.6661979 0.15890847 4294836218
0.33832267 0.66431618 0.15870543 4294836218
0.33778441 0.66217244 0.15780662 4294836218
0.33786559 0.66011441 0.1572576 4294836218
0.33800647 0.65888625 0.15711255 4294836218
0.34307882 0.61467117 0.15189089 4294901753
0.34367055 0.61302173 0.15210395 4294901753
0.34414724 0.61076039 0.15265304 4294901753
0.34463385 0.60922009 0.15308315 4294901753
0.3342346 0.67779171 0.16071256 4294901753
0.33462477 0.67574716 0.16077659 4294901753
0.3348594 0.67370152 0.16053496 4294901753
0.33509409 0.67165589 0.16029343 4294901753
0.33532879 0.66961026 0.16005185 4294901753
0.33551651 0.66797376 0.15985858 4294901753
0.33575121 0.66592813 0.15961701 4294901753
0.3359859 0.66388249 0.15937541 4294901753
0.33611771 0.66182888 0.15892921 4294901753
0.33625415 0.66018754 0.15863356 4294901753
0.34242195 0.61201304 0.15239736 4294901753
0.34256285 0.61078483 0.15225232 4294901753
0.34247267 0.60869771 0.15316334 4294901754
0.34307125 0.6065886 0.15361156 4294901754
0.3435902 0.60439962 0.15387577 4294901755
0.34373054 0.6031763 0.1537313 4294901755
0.34504035 0.59175867 0.15238291 4294770683
0.34518069 0.59053534 0.15223843 4294770682
0.34536785 0.58890426 0.1520458 4293585637
0.34742615 0.57096219 0.1499269 4286216820
0.34766003 0.56892335 0.14968611 4286216820
0.34789395 0.56688446 0.14944534 4286282613
0.33290496 0.67540842 0.16179842 4294901753
0.33313981 0.67336148 0.16155668 4294901753
0.33337465 0.67131448 0.16131493 4294901753
0.33360946 0.66926748 0.16107319 4294901753
0.33379731 0.6676299 0.16087979 4294901753
0.33403215 0.6655829 0.16063805 4294901753
0.33426699 0.66353589 0.16039631 4294901753
0.33450183 0.66148889 0.16015457 4294901753
0.3409673 0.60792494 0.15355535 4294901753
0.34123915 0.60607386 0.15381183 4294901753
0.3418332 0.60429001 0.15422198 4294901753
0.34230587 0.60252476 0.15467043 4294901753
0.34245297 0.60039473 0.1547647 4294901753
0.34237522 0.59828889 0.15478839 4294901753
0.34292075 0.59631699 0.15428314 4294836217
0.34315464 0.59427816 0.15404235 4294770681
0.343521 0.59225494 0.15346982 4294770681
0.34363151 0.59034693 0.15299267 4294770681
0.34397087 0.58857578 0.15279248 4291742411
0.34381676 0.58659595 0.15253341 4285951089
0.3438268 0.58457208 0.15222092 4285754989
0.34437498 0.58255208 0.15223823 4286216052
0.34438518 0.58052695 0.15192559 4286610808
0.34470791 0.57868224 0.15174447 4286479735
0.34494203 0.57664132 0.15150344 4286414201
0.34517616 0.57460046 0.15126242 4286479994
0.34531963 0.57267272 0.15070668 4286348406
0.34570172 0.57075 0.15007895 4286282613
0.34592038 0.56884331 0.14985387 4286216820
0.34628201 0.56686461 0.14988087 4286216820
0.34598583 0.56512266 0.15005131 4286216820
0.3463515 0.56362814 0.15069506 4286216826
0.33201325 0.6747973 0.16254665 4294901753
0.33220112 0.67315972 0.16235325 4294901753
0.33243597 0.67111272 0.16211151 4294901753
0.33267078 0.66906571 0.16186976 4294901753
0.33285862 0.66742814 0.16167636 4294901753
0.33309346 0.66538113 0.16143462 4294901753
0.33332831 0.66333413 0.16119288 4294901753
0.33990362 0.60601836 0.15442406 4294901753
0.33994526 0.60395098 0.15487246 4294901753
0.3399609 0.60228759 0.1550508 4294901754
0.34097824 0.60004759 0.15535831 4294901754
0.34144023 0.59808797 0.1555818 4294901754
0.34171775 0.59622556 0.15530738 4294901753
0.34154469 0.59413958 0.15462402 4294836218
0.34137207 0.59204793 0.15394031 4294770682
0.34136611 0.59024662 0.1534207 4294770682
0.341344 0.58820599 0.15316354 4290492083
0.34160754 0.58626342 0.1527898 4286214255
0.34269372 0.58444679 0.15248385 4285952108
0.34240729 0.58206421 0.15246084 4286610808
0.34249234 0.58042938 0.15226132 4286676601
0.34247056 0.57838529 0.15200369 4286545015
0.34378168 0.57633758 0.15182981 4286610810
0.34401608 0.57429469 0.15158854 4286545787
0.34375483 0.57244766 0.15045945 4286414199
0.3439427 0.57081008 0.15026605 4286479992
0.34417754 0.56876308 0.15002431 4286282870
0.34396651 0.56641054 0.15015669 4286282870
0.34431142 0.56476843 0.15048644 4286282870
0.34519455 0.56305581 0.15123208 4285163368
0.33847168 0.60144317 0.15581566 4294901754
0.33908734 0.59959787 0.15601271 4294901754
0.3395761 0.59764421 0.15628651 4294901754
0.33976346 0.59601092 0.15609361 4294901754
0.33964214 0.59383649 0.15513074 4294901754
0.33971357 0.59194332 0.15462986 4294836218
0.33981097 0.59005767 0.15417993 4294770683
0.33995187 0.58882952 0.1540349 4294900213
0.34295258 0.56370902 0.15129542 4286413686
0.34353882 0.5623104 0.15194076 4283649872
0.34413898 0.56064558 0.15252186 4282597956
0.33705139 0.60107052 0.1567567 4294901753
0.33739448 0.59937894 0.1569556 4294901753
0.33767942 0.59745377 0.15719943 4294901753
0.33781916 0.59553641 0.15664707 4294901753
0.33790049 0.59343421 0.15609698 4294901753
0.33832455 0.59183568 0.15548377 4294901753
0.34161219 0.56317776 0.15209936 4285887085
0.34227079 0.56161189 0.15282041 4283189317
0.34246162 0.56022924 0.15341833 4282729279
0.34250295 0.55820477 0.1538679 4282335033
0.33614951 0.59682161 0.15743992 4294901755
0.33633739 0.59518397 0.15724653 4294901755
0.34043285 0.55948901 0.15340623 4282466363
0.34087631 0.5577352 0.15415041 4282006326
0.33917943 0.55700856 0.15457532 4281677363
0.33994833 0.55538821 0.1553326 4280559911
0.34016588 0.5535242 0.15576655 4281021494
0.34203708 0.53721321 0.15384027 4281612348
0.34222421 0.53558218 0.15364765 4281087801
0.34270352 0.53349155 0.15319647 4281219127
0.34300366 0.53157139 0.1529016 4281153333
0.34323755 0.52953255 0.15266083 4281087284
0.34333745 0.52754843 0.15253545 4281349941
0.34334692 0.52579558 0.15249188 4281151535
0.34358081 0.52375668 0.15225109 4281019693
0.34381473 0.52171785 0.15201031 4280822826
0.34404862 0.51967895 0.15176953 4280888876
0.34423572 0.51804787 0.15157691 4280889133
0.33763292 0.55491406 0.15565489 4280625191
0.3385193 0.55336082 0.15664189 4281284919
0.33915317 0.55121738 0.15658364 4281482555
0.34036946 0.54061526 0.15533157 4281678649
0.3405098 0.53939193 0.1551871 4281809466
0.34069592 0.53747284 0.15472664 4281677369
0.34058857 0.53550696 0.15405537 4281414969
0.33994088 0.53339732 0.15325071 4281415224
0.3404327 0.53136688 0.15302472 4281349174
0.34041026 0.52930534 0.15276746 4281283124
0.34090203 0.52727634 0.15254168 4281348404
0.34096831 0.52549458 0.15232387 4281217075
0.34125325 0.52348363 0.15218616 4280954158
0.34220552 0.52149254 0.15258956 4281019949
0.34266439 0.51946014 0.15241998 4280954669
0.3426739 0.51740992 0.1521074 4280757803
0.34299693 0.51557773 0.15192626 4280889388
0.34331983 0.51374674 0.15174524 4280823849
0.34332961 0.51169425 0.15143241 4280889386
0.343788 0.50966579 0.1512633 4280888616
0.34379795 0.50761163 0.15095027 4280822822
0.3442215 0.50562733 0.15107472 4280363813
0.34431478 0.50344086 0.15121375 4280495920
0.33643663 0.55276984 0.15663186 4281613366
0.33728597 0.55071139 0.15728968 4281679416
0.33782884 0.54884356 0.15766521 4281678905
0.33787128 0.54688293 0.15758932 4281547576
0.33798498 0.54469883 0.1574481 4281219383
0.33853051 0.54272699 0.15694286 4281350712
0.33845705 0.5405035 0.15608415 4281678649
0.33864439 0.53887028 0.15589127 4281481013
0.33860201 0.53709495 0.15523431 4281546807
0.33855987 0.53531724 0.15457703 4281415478
0.33832911 0.53310758 0.15429093 4281284149
0.33856392 0.53106058 0.15404919 4281217843
0.3395502 0.5224632 0.15303387 4280888365
0.34030849 0.52128088 0.15292656 4280954156
0.34028593 0.51921576 0.15266918 4281020205
0.34077772 0.51719034 0.15244345 4280823340
0.3407554 0.51512384 0.15218598 4280823340
0.34109432 0.5132243 0.15196788 4280954925
0.34143469 0.5114637 0.15176719 4280823338
0.3414126 0.50939512 0.15150943 4280889129
0.34190395 0.50737315 0.15128407 4280626213
0.34221825 0.50533307 0.15143374 4280429348
0.34272882 0.50328696 0.1519061 4280495916
0.34294364 0.5014748 0.15234348 4280627246
0.33518299 0.55214751 0.15735988 4281680185
0.33505794 0.5504427 0.15743202 4281614648
0.33544773 0.54848272 0.15749809 4281679675
0.33575985 0.54648083 0.15741041 4281415992
0.33608463 0.54463995 0.15722758 4281219127
0.33609194 0.54259586 0.15691704 4281219382
0.336301 0.54068583 0.15650292 4281481527
0.33641997 0.53857011 0.15602989 4281415219
0.33696771 0.5365904 0.15552263 4281612086
0.33715558 0.53495282 0.15532924 4281349428
0.3405841 0.50506669 0.15179978 4280494632
0.34050605 0.50295246 0.15182357 4280823345
0.34127098 0.50131965 0.15267162 4281021234
0.34177929 0.49904841 0.15284927 4281021234
0.34216484 0.49712914 0.15291978 4281349688
0.34208709 0.49502328 0.15294346 4281678395
0.34232101 0.49298441 0.15270267 4282006846
0.34250811 0.4913533 0.15251005 4281876031
0.34274203 0.48931444 0.15226927 4282140485
0.34328756 0.48734257 0.15176402 4281878595
0.34352145 0.4853037 0.15152323 4282337865
0.34375536 0.4832648 0.15128244 4282271560
0.34367761 0.48115897 0.15130614 4282271046
0.3439115 0.47912011 0.15106535 4282533960
0.34409863 0.47748899 0.15087272 4282468167
0.33411926 0.55024093 0.15822859 4281418810
0.3343541 0.54819393 0.15798685 4281285691
0.33458894 0.54614693 0.15774509 4281218873
0.33477682 0.54450935 0.15755171 4281284665
0.33501163 0.54246235 0.15730996 4281219383
0.33524647 0.54041535 0.15706821 4281087795
0.33548129 0.53836834 0.15682647 4281218611
0.33956736 0.50275069 0.15262014 4280954676
0.33952156 0.5008691 0.15305935 4281020468
0.33959821 0.49881881 0.1530984 4281020725
0.34010217 0.4968389 0.15335877 4281414969
0.34045342 0.49474186 0.15330882 4281742908
0.34073836 0.49274102 0.15317133 4282006336
0.34084982 0.49104503 0.15282284 4282072897
0.34099254 0.48907587 0.15244217 4282204995
0.34113565 0.48710528 0.15206116 4282205250
0.34139529 0.48508343 0.15187179 4282271559
0.34169587 0.48294696 0.15171817 4282337095
0.34193 0.48090413 0.15147711 4282271044
0.34214887 0.47899738 0.15125184 4282336324
0.3424556 0.47725895 0.15144791 4282533961
0.34279341 0.47525111 0.15161212 4282403405
0.33792484 0.50030023 0.15397152 4281283895
0.33811271 0.49866262 0.15377814 4281086259
0.33834752 0.49661562 0.15353638 4281546040
0.33844942 0.49433029 0.15340322 4281874235
0.33850431 0.49245438 0.15331842 4282006333
0.33869216 0.49081677 0.15312502 4282269506
0.33905998 0.4890081 0.15277469 4282336067
0.33947474 0.48679006 0.15237601 4282533958
0.33970955 0.48474306 0.15213427 4282402372
0.33994439 0.48269606 0.15189253 4282402372
0.34017923 0.48064908 0.15165079 4282534728
0.34022114 0.47842076 0.15156993 4282271043
0.34056169 0.47682652 0.15177298 4282534218
0.34139633 0.4747968 0.15213726 4282468940
0.34183401 0.47291371 0.15233609 4282468940
0.34219134 0.47105035 0.1523692 4282337612
0.34191772 0.46866366 0.15255427 4282337096
0.34215161 0.4666248 0.1523135 4282402376
0.3423855 0.46458593 0.15207271 4282335813
0.34257263 0.46295482 0.15188009 4282204226
0.34280655 0.46091595 0.1516393 4282271043
0.34353128 0.4587737 0.15097773 4282140486
0.34389764 0.45697221 0.15062878 4282338125
0.34413156 0.45493332 0.150388 4282272330
0.34413943 0.45347261 0.15035169 4282469452
0.34392926 0.45112938 0.15048353 4282403659
0.34411636 0.44949827 0.15029091 4282272073
0.33927229 0.47458121 0.15230152 4282468679
0.33955052 0.4722141 0.15239187 4282468935
0.33989742 0.47024477 0.15284897 4282271814
0.3403345 0.46838799 0.15302272 4282205765
0.34121665 0.46642384 0.1531069 4282271301
0.34145054 0.46438497 0.15286611 4282402887
0.34118295 0.46232188 0.15173809 4282205765
0.34075335 0.46058995 0.15150614 4282271814
0.34124497 0.45858666 0.15128098 4282337349
0.34107277 0.45689279 0.15106496 4282140485
0.34131449 0.45496228 0.1504546 4282404171
0.34190151 0.45286363 0.15060513 4282535499
0.3421478 0.45062828 0.15053228 4282535500
0.34322819 0.44888958 0.15103616 4282338378
0.34346208 0.44685069 0.15079537 4282469709
0.343696 0.44481179 0.15055458 4282403659
0.34383634 0.4435885 0.15041012 4282469453
0.33798963 0.47178859 0.15333904 4282534471
0.3381775 0.47015098 0.15314564 4282600007
0.33850777 0.46781284 0.15325472 4282402628
0.33896825 0.46620345 0.15326761 4282337092
0.33903405 0.46441063 0.15304998 4282468679
0.33937478 0.46265969 0.15284909 4282468681
0.33930469 0.46032542 0.15198527 4282402888
0.33953953 0.45827842 0.15174353 4282403400
0.33972737 0.45664081 0.15155013 4282337864
0.33996221 0.45459384 0.15130839 4282469707
0.34019703 0.45254683 0.15106665 4282535756
0.34043187 0.45049986 0.1508249 4282535500
0.34112075 0.44850713 0.15118286 4282601293
0.34121963 0.44657832 0.15094994 4282601292
0.34165552 0.44474214 0.15112515 4282666317
0.34164408 0.44295365 0.15095265 4282863438
0.30938843 0.70433283 0.18244262 4290544717
0.3095763 0.70269519 0.18224922 4290476614
0.30976415 0.70105761 0.18205583 4291331921
0.31093833 0.69082266 0.18084711 4292191336
0.31117314 0.68877566 0.18060537 4291994982
0.31131405 0.68754745 0.18046032 4291666017
0.31295788 0.67321855 0.17876811 4294956204
0.3131927 0.67117155 0.17852637 4294891961
0.31342751 0.66912454 0.17828463 4294629820
0.31366235 0.66707754 0.17804289 4294563774
0.31389719 0.66503054 0.17780113 4294303174
0.31408507 0.66339296 0.17760774 4294043093
0.3045522 0.72972137 0.18708172 4288717480
0.30491534 0.72805226 0.1871763 4287467669
0.30555066 0.72605759 0.18681318 4284439392
0.30601013 0.7240954 0.1861625 4284898653
0.30659381 0.72199309 0.18649834 4290820531
0.30678129 0.72035873 0.18630533 4291017910
0.30701566 0.71831584 0.18606406 4291017393
0.30698901 0.71630889 0.18538897 4293053624
0.3069627 0.71429873 0.18471344 4294036396
0.30717871 0.71204925 0.18492179 4293309321
0.3073889 0.70992404 0.18505007 4292191598
0.3076151 0.70806235 0.18468799 4292126572
0.30785507 0.7065202 0.18379481 4291796834
0.30856675 0.70434386 0.18366952 4290938185
0.3091566 0.70244819 0.18391669 4291068744
0.30941331 0.70054734 0.18392211 4291464014
0.30983052 0.69825798 0.18457153 4291794518
0.31001765 0.69662684 0.18437891 4291927645
0.31025153 0.69458801 0.18413812 4292323691
0.31048545 0.69254911 0.18389733 4292061808
0.310516 0.6905992 0.18251739 4291994727
0.31075028 0.68855625 0.18227609 4291269716
0.3110624 0.68667763 0.18262905 4292783473
0.31090614 0.68440318 0.18205908 4294296731
0.31083643 0.68277156 0.1814283 4294888618
0.3108139 0.68072808 0.18074884 4294890419
0.31104875 0.67868108 0.18050709 4294956468
0.31145459 0.67663664 0.1805577 4294494630
0.31228736 0.67460251 0.18133976 4294691237
0.3125315 0.67303002 0.18044248 4294890668
0.31276584 0.67098707 0.18020122 4294957752
0.3130002 0.66894412 0.17995995 4294695357
0.31303659 0.66694301 0.17857392 4294629567
0.31327143 0.66489607 0.17833218 4294368965
0.31372392 0.66297233 0.17948462 4293452501
0.31413427 0.66074276 0.18014109 4292730066
0.3143214 0.65911168 0.17994846 4292598994
0.31404665 0.6570279 0.17882614 4292270289
0.31374967 0.65477133 0.17815748 4292139474
0.31391883 0.65300405 0.17832798 4291810767
0.31400979 0.65119827 0.17775373 4291876046
0.31380457 0.64906991 0.17755702 4291085760
0.31403938 0.6470229 0.17731528 4284767593
0.30311275 0.73108995 0.18833722 4288980652
0.30365419 0.72973716 0.18828613 4289177772
0.30426782 0.7279827 0.18834072 4289243308
0.30545059 0.72565824 0.18842402 4289439910
0.30594847 0.72374678 0.18839882 4291874248
0.30613557 0.7221157 0.1882062 4292794845
0.30688402 0.71559131 0.18743569 4294039231
0.30707115 0.71396017 0.18724304 4294234294
0.30701098 0.71205604 0.1868176 4293836957
0.30670401 0.70987558 0.186159 4292062854
0.30693841 0.70783269 0.18591774 4291865982
0.30795994 0.70621246 0.18632807 4291534949
0.30819386 0.70417362 0.18608728 4291336022
0.31128135 0.67726052 0.18290894 4294495405
0.31366712 0.65646404 0.18045293 4292073684
0.31356457 0.65492976 0.1800712 4292008403
0.31326628 0.65267354 0.1794036 4291876817
0.31331646 0.65057784 0.17964698 4291876560
0.31337649 0.6489293 0.17923379 4291086017
0.31352586 0.6468752 0.17884572 4286347391
0.31353232 0.64477617 0.17901678 4281216078
0.31321052 0.64306927 0.17794223 4280692560
0.29916888 0.74870002 0.1920577 4291019711
0.30001384 0.74692398 0.19130102 4288783534
0.30079743 0.74515247 0.19125405 4285230977
0.30125219 0.74345267 0.19148897 4284440952
0.30113086 0.74149108 0.19067639 4284638589
0.30114082 0.73989499 0.19019745 4287335325
0.30193925 0.73293519 0.18937552 4288980907
0.30292398 0.73114425 0.19047102 4290164408
0.30337682 0.72946143 0.190708 4291875279
0.30351716 0.72823811 0.19056351 4293191137
0.31315383 0.64423668 0.1806432 4280954443
0.31317064 0.64258051 0.18015712 4280430160
0.31255364 0.64041114 0.17844871 4280430416
0.31175584 0.63898116 0.17910023 4280496982
0.2985431 0.7485655 0.19258875 4291019711
0.29985976 0.74660534 0.19352917 4287335320
0.30105427 0.7385723 0.19287348 4287992736
0.30114782 0.73775679 0.19277717 4288782246
0.31249955 0.64158911 0.18114766 4280234323
0.31212741 0.64028758 0.18012424 4280299859
0.31137818 0.6384511 0.18072611 4280365911
0.31105199 0.63673246 0.17965506 4280694105
0.31073901 0.63745022 0.18256554 4280170586
0.31041026 0.63573188 0.18149668 4280366681
0.31003526 0.63441646 0.1804754 4280694875
0.30999118 0.63561815 0.18316633 4280170847
0.30929634 0.63380754 0.18306512 4280762981
0.30898622 0.63216317 0.18237612 4283128951
0.30835518 0.6331774 0.18451235 4281552754
0.3081035 0.63129067 0.184163 4285035661
0.30781403 0.62931538 0.18325262 4286153108
0.30781895 0.627639 0.18354309 4286481301
0.30748579 0.62589806 0.18247753 4286481557
0.30715027 0.63069004 0.1854897 4285298061
0.3070873 0.62914723 0.18518358 4286350487
0.30716187 0.62724191 0.18488421 4286744986
0.30698636 0.6253683 0.1838787 4286810264
0.30651602 0.6231727 0.18324953 4286810264
0.30629963 0.62102944 0.18382894 4286810264
0.30635989 0.61894417 0.18329708 4286810007
0.30654776 0.61730659 0.1831037 4286546578
0.3067826 0.61525959 0.18286195 4286283406
0.30697048 0.61362201 0.18266855 4285888131
0.30662623 0.62319571 0.18578497 4286810521
0.3056742 0.62089503 0.1843596 4286811034
0.3057341 0.6188097 0.18382813 4286810776
0.30592197 0.61717212 0.18363474 4286876055
0.30615678 0.61512512 0.183393 4286941336
0.30660272 0.61314398 0.18428703 4287730335
0.30647743 0.61144155 0.18435943 4294901755
0.30623749 0.61266643 0.18590339 4289177011
0.30551627 0.61080784 0.18472828 4294901753
0.30495992 0.60988486 0.1869368 4294901755
0.30505347 0.60906935 0.18684047 4294901755
0.33882281 0.97814667 0.16156535 4282665545
0.3390581 0.97609556 0.16132306 4282731596
0.33929342 0.97404456 0.1610809 4282403658
0.33948165 0.97240371 0.16088711 4282534988
0.33971694 0.97035265 0.16064483 4282994256
0.33995226 0.96830159 0.16040267 4282665803
0.33934116 0.96522796 0.16086169 4282665546
0.33948234 0.96399736 0.16071635 4282862156
0.33927885 0.96017069 0.16081245 4282467912
0.33946708 0.95852983 0.16061868 4282402635
0.33865181 0.96003586 0.16134456 4282599754
0.3385736 0.95791745 0.16136837 4282665549
0.33849537 0.95579898 0.1613922 4283059792
0.33962479 0.94595397 0.16022953 4283322442
0.33986008 0.94390291 0.1599873 4283059272
0.3400954 0.94185185 0.15974508 4283124554
0.34033069 0.9398008 0.15950286 4283190095
0.34051892 0.93815994 0.15930907 4283058255
0.34070715 0.93651909 0.1591153 4282993489
0.33779013 0.95354575 0.16194813 4283321933
0.33802539 0.95149469 0.16170587 4283256396
0.33826074 0.94944364 0.16146369 4283190346
0.34009606 0.93344545 0.15957433 4282535501
0.34028423 0.9318046 0.15938053 4283127124
0.34051958 0.92975354 0.15913835 4283126610
0.34070781 0.92811269 0.15894456 4283126610
0.33995548 0.92626971 0.15954894 4283258196
0.34122548 0.92360038 0.15841167 4282928977
0.34141365 0.92195958 0.15821785 4282928975
0.341649 0.91990852 0.15797566 4282928718
0.34183726 0.91826767 0.1577819 4283192146
0.34230784 0.91416556 0.15729743 4282993994
0.34169671 0.91109192 0.15775648 4283125578
0.34183788 0.90986127 0.15761115 4283453773
0.34197906 0.90863067 0.15746582 4283387727
0.34113264 0.90760809 0.15816706 4283256143
0.34132084 0.90596724 0.15797323 4282992973
0.34150913 0.90432638 0.15777951 4283124816
0.3403492 0.90323645 0.15874682 4283124813
0.3402082 0.90166491 0.15883519 4282861896
0.33978513 0.89975256 0.15915741 4283059015
0.33875045 0.90037084 0.16005246 4282993222
0.33884457 0.89955044 0.15995558 4283058758
0.33799815 0.89852786 0.16065682 4282992712
0.33782583 0.89722979 0.16077754 4282861640
0.3377476 0.89511138 0.16080137 4282796360
0.33798292 0.89306033 0.16055913 4282993739
0.33821821 0.89100927 0.16031691 4282861639
0.3384535 0.88895822 0.1600747 4282992971
0.33864176 0.88731736 0.15988091 4283124557
0.33950406 0.88540107 0.1591066 4282665548
0.33973935 0.88335007 0.15886438 4282731341
0.33997464 0.88129902 0.15862215 4282600010
0.34020996 0.8792479 0.15837993 4282731852
0.33981824 0.87706208 0.1586698 4282862667
0.3368853 0.89702767 0.16157569 4282664774
0.33680704 0.8949092 0.16159946 4282927689
0.33704236 0.89285821 0.16135728 4282927943
0.33732155 0.89098465 0.16108122 4282665028
0.33782646 0.88882345 0.16060679 4283058762
0.33801469 0.88718259 0.16041301 4283124557
0.3391912 0.87692732 0.15920189 4282993739
0.33879948 0.87474149 0.15949176 4282796618
0.33867419 0.87303329 0.15956405 4282731595
0.3385489 0.87132508 0.15963632 4282797388
0.33778071 0.87242091 0.16031376 4282666059
0.33765543 0.8707127 0.16038603 4282797387
0.33757719 0.86859423 0.16040985 4283190348
0.33776546 0.86695337 0.16021608 4283321930
0.3369661 0.8655206 0.16086888 4283190091
0.33710727 0.86429 0.16072355 4283256140
0.33753076 0.86059809 0.1602875 4282993991
0.33776611 0.85854703 0.16004533 4283125577
0.33800137 0.85649598 0.15980305 4283059269
0.33790749 0.85451424 0.15984307 4282796097
0.33748439 0.85260195 0.16016525 4282796870
0.33671618 0.85369778 0.16084267 4282927946
0.33685738 0.85246718 0.16069734 4282862664
0.33646566 0.8502813 0.16098723 4282599751
0.33670095 0.84823024 0.16074499 4282336579
0.34103042 0.81049085 0.15628809 4294770683
0.33594865 0.84638727 0.16134937 4282271296
0.33985457 0.81233978 0.15732846 4294770683
0.34004277 0.81069893 0.15713464 4294770683
0.34023106 0.80905807 0.15694091 4294770683
0.34253696 0.78895777 0.15456711 4292268745
0.34277222 0.78690672 0.15432484 4291084476
0.34300756 0.78485566 0.15408267 4290755516
0.33529046 0.84372383 0.16185685 4282073405
0.33458522 0.84147066 0.16241278 4282270273
0.33467934 0.8406502 0.16231589 4282204736
0.33793572 0.81394488 0.15899765 4294770683
0.33837315 0.81265181 0.15859835 4294770683
0.33900815 0.81131721 0.15802972 4294770683
0.33871049 0.80831093 0.15822266 4294770683
0.33894581 0.80625987 0.15798043 4294770683
0.3390463 0.80426389 0.15785438 4294770683
0.33900881 0.8029108 0.15785898 4294770683
0.34047693 0.79179353 0.15638165 4294770683
0.3409144 0.79050046 0.15598233 4294770681
0.34230232 0.78260243 0.15463859 4290821562
0.34159708 0.7803492 0.15519452 4290755769
0.34178531 0.7787084 0.15500075 4290690746
0.34315005 0.76681226 0.15359585 4289901230
0.34437355 0.75614679 0.15233628 4294901752
0.34451476 0.75491613 0.15219095 4294901752
0.34475002 0.75286508 0.15194868 4294901753
0.34529883 0.75088143 0.1514404 4294901753
0.3451736 0.74917322 0.15151273 4294901754
0.34531477 0.74794257 0.1513674 4294901754
0.33387995 0.83921742 0.1629687 4282270786
0.33348823 0.8370316 0.16325858 4282007614
0.33358234 0.83621114 0.1631617 4282007616
0.33620495 0.81559044 0.16050725 4294770683
0.33679765 0.81378436 0.15996513 4294770683
0.33693883 0.8125537 0.1598198 4294770683
0.33745649 0.80804139 0.1592869 4294770683
0.33773884 0.80558014 0.15899622 4294770683
0.33773375 0.80375761 0.15896368 4294770683
0.33776733 0.80197144 0.15889888 4294770683
0.33777064 0.79970241 0.1588501 4294770683
0.33847654 0.79354924 0.15812343 4294770683
0.33884239 0.79222679 0.15778458 4294770683
0.34136245 0.77399391 0.15526599 4290427574
0.34155068 0.77235305 0.15507221 4290295988
0.34178597 0.770302 0.15482999 4290361781
0.3419742 0.76866114 0.1546362 4290164402
0.34220952 0.76661009 0.15439399 4289835437
0.34244481 0.76455903 0.15415177 4289638058
0.34244812 0.76229 0.154103 4289703851
0.34260187 0.76038957 0.15393338 4289703851
0.34287894 0.75890791 0.15366706 4289703851
0.34333891 0.75676507 0.15323131 4293190621
0.34451544 0.74650979 0.1520202 4294901753
0.34470364 0.74486893 0.15182641 4294901753
0.34421778 0.74350351 0.15221319 4294901753
0.33286119 0.83689684 0.16379067 4282073920
0.33245379 0.83484775 0.16409671 4282138945
0.33234417 0.83300275 0.16415283 4282730311
0.33399126 0.81864536 0.16245726 4294965499
0.33413246 0.81741476 0.16231193 4294901502
0.33530828 0.81556582 0.16127156 4294836219
0.33672008 0.80325955 0.15981822 4294770683
0.33690831 0.8016187 0.15962444 4294770683
0.3369503 0.79938596 0.15954342 4294770683
0.33670485 0.79779202 0.15972053 4294770683
0.33680689 0.79550219 0.1595871 4294770683
0.33705941 0.79358089 0.15933283 4294770683
0.33747965 0.79215807 0.15894558 4294770683
0.3414731 0.76182824 0.1549253 4289769644
0.34166133 0.76018739 0.15473153 4289835437
0.34180251 0.75895679 0.15458618 4290163632
0.34326687 0.74245846 0.15300313 4294901754
0.33182719 0.82910872 0.16451497 4282797131
0.33206248 0.82705766 0.16427276 4282403655
0.33239189 0.82418615 0.16393363 4282401602
0.33253306 0.82295555 0.1637883 4282467137
0.33578017 0.79465097 0.16044562 4294770683
0.33592138 0.79342037 0.16030028 4294770683
0.33606252 0.79218972 0.16015495 4294770683
0.34136501 0.74036843 0.15458302 4294901755
0.34035134 0.73987031 0.15543756 4294901755
0.34029919 0.73845804 0.15545343 4294901755
0.33926451 0.73907626 0.15634848 4294901755
0.33907652 0.73791498 0.15648533 4294901755
0.34118494 0.71729583 0.15426949 4286874243
0.34194693 0.71569425 0.15358713 4286743170
0.34213516 0.71405339 0.15339334 4286940549
0.34237042 0.71200234 0.15315108 4287006596
0.34260577 0.70995128 0.15290891 4286743166
0.34223908 0.70810711 0.15318432 4286940035
0.34213582 0.70564705 0.15322261 4286874501
0.34227699 0.70441639 0.15307727 4287006087
0.33945405 0.72062266 0.15581322 4287663757
0.34124231 0.70503467 0.15397233 4286677375
0.34138349 0.70380402 0.15382698 4286743168
0.34161878 0.70175296 0.1535847 4286743168
0.3418541 0.69970191 0.15334255 4286611327
0.33614525 0.73546356 0.15893587 4294901755
0.33710238 0.72432047 0.15789396 4294901755
0.33724356 0.72308981 0.15774862 4294901755
0.33837235 0.72165114 0.15675668 4292072401
0.341243 0.69662827 0.15380156 4286348155
0.34138414 0.69539768 0.15365623 4286348155
0.3415724 0.69375682 0.15346244 4286479996
0.34107411 0.69137996 0.15383936 4287202692
0.34110248 0.68945253 0.15377615 4291807430
0.34124362 0.68822193 0.15363081 4294901750
0.33471888 0.73389596 0.16012083 4294901755
0.33481303 0.73307556 0.16002394 4294901755
0.34039721 0.68719935 0.15433207 4294901749
