# .PCD v0.7 - Point Cloud Data file format
VERSION 0.7
FIELDS x y z rgb
SIZE 4 4 4 4
TYPE F F F U
COUNT 1 1 1 1
WIDTH 1094
HEIGHT 1
VIEWPOINT 0 0 0 1 0 0 0
POINTS 1094
DATA ascii
0.32963803 0.66775316 0.15419978 4294770683
0.33081555 0.66623187 0.15392651 4294770683
0.33211631 0.6645053 0.15364736 4294770683
0.3331435 0.66279417 0.15359825 4294770683
0.33417073 0.6610831 0.15354912 4294770683
0.3351979 0.65937197 0.15350001 4294770683
0.33622509 0.6576609 0.15345088 4294770683
0.33725229 0.65594983 0.15340175 4294770426
0.33827949 0.6542387 0.15335262 4288056460
0.33930671 0.65252763 0.1533035 4286544253
0.34033388 0.6508165 0.15325437 4286545792
0.34136108 0.64910543 0.15320526 4288058512
0.34238827 0.64739436 0.15315613 4288320913
0.34341547 0.64568323 0.15310702 4288584598
0.34420344 0.64382046 0.15334053 4288781976
0.34523064 0.64210933 0.15329139 4288782231
0.34625784 0.6403982 0.15324228 4288848024
0.34728503 0.63868713 0.15319315 4288848281
0.34854999 0.63690341 0.15325595 4289110939
0.34950656 0.63530332 0.15349621 4289044890
0.3505092 0.63348341 0.15366337 4289176476
0.35108119 0.63158077 0.15396285 4289242269
0.35231131 0.62974858 0.15393843 4289439646
0.35333747 0.62803924 0.15388936 4289440161
0.3539632 0.62591207 0.1536874 4289703079
0.35499039 0.624201 0.15363827 4291347901
0.3565957 0.62261432 0.15359087 4294901493
0.35773361 0.62144393 0.15355606 4294901753
0.35875934 0.61973518 0.15350696 4294901753
0.35941193 0.61790711 0.15431216 4294901753
0.36002699 0.61688256 0.15428276 4294901753
0.36617744 0.60663718 0.15398863 4290229423
0.36717084 0.6057235 0.15310475 4289966250
0.36822954 0.60418642 0.15306021 4289966250
0.36887139 0.60202128 0.15250948 4289966764
0.36990419 0.60067827 0.15227415 4290032555
0.37111598 0.59898978 0.15205348 4289966506
0.37214321 0.59727865 0.15200438 4289966764
0.37727919 0.58872318 0.15175873 4294901753
0.3782039 0.58685261 0.15187724 4294901753
0.37909433 0.58514929 0.15194312 4294901753
0.38033339 0.5836916 0.15259477 4294901753
0.3811436 0.5817067 0.1532729 4294901753
0.38216865 0.57999909 0.15322386 4294901753
0.38319376 0.57829154 0.15317486 4294901753
0.38421884 0.57658398 0.15312582 4294901753
0.38524392 0.57487643 0.15307681 4294901753
0.38626897 0.57316887 0.15302777 4294901753
0.38716671 0.57113773 0.15254219 4294901753
0.38850716 0.57018167 0.1520844 4294901753
0.38960555 0.56819004 0.15116926 4294901754
0.39358625 0.56114632 0.15118226 4293585380
0.39469296 0.55977148 0.15190801 4286279281
0.17148253 0.92876154 0.16438203 4282271299
0.1723026 0.92739546 0.16434281 4282205250
0.17332767 0.92568791 0.16429377 4282205249
0.17435275 0.92398036 0.16424477 4282139453
0.17517282 0.92261428 0.16420555 4282008380
0.18193837 0.91134435 0.163882 4282664257
0.18398851 0.90792924 0.16378397 4282730567
0.18460354 0.9069047 0.16375455 4282730567
0.18562862 0.90519708 0.16370551 4282862153
0.18665372 0.90348953 0.1636565 4282994509
0.18767877 0.90178198 0.16360746 4283257421
0.18870386 0.90007442 0.16355845 4283058758
0.24818303 0.80063599 0.16041963 4294901751
0.24905393 0.79846793 0.15978925 4294901753
0.25058863 0.79699856 0.15988676 4294836217
0.25143147 0.79537714 0.15981229 4294836217
0.25294125 0.79416662 0.15994515 4294770681
0.25364119 0.79192698 0.15902747 4294770681
0.25466835 0.79021591 0.15897836 4294770681
0.25569558 0.78850484 0.15892923 4294770681
0.25672278 0.78679371 0.1588801 4294770681
0.25774994 0.78508264 0.15883097 4294770681
0.25877717 0.78337151 0.15878186 4293783013
0.25959891 0.78200263 0.15874256 4287595909
0.26391315 0.77481604 0.15853624 4285952880
0.26494035 0.77310497 0.15848713 4286150259
0.26596755 0.7713939 0.158438 4286545017
0.26699474 0.76968277 0.15838887 4286611578
0.26802191 0.76797169 0.15833974 4285624943
0.26904914 0.76626056 0.15829062 4284966759
0.27007633 0.76454949 0.1582415 4285295724
0.2711035 0.76283842 0.15819238 4285427310
0.27213073 0.76112729 0.15814325 4285558897
0.27315789 0.75941622 0.15809414 4285690484
0.27418512 0.75770509 0.15804501 4285822068
0.27521232 0.75599402 0.15799588 4285953397
0.27623951 0.75428295 0.15794675 4286281852
0.27726671 0.75257182 0.15789764 4287266691
0.27788302 0.75154519 0.15786816 4293252823
0.28055373 0.74709636 0.15774044 4294901754
0.2813755 0.74572748 0.15770115 4293256938
0.28198609 0.74468589 0.15909745 4294638847
0.31121728 0.69599843 0.15734345 4288521380
0.31215692 0.69443876 0.1569424 4288849577
0.31321859 0.69268352 0.15617831 4289769393
0.31424582 0.69097245 0.1561292 4290098357
0.31527299 0.68926138 0.15608007 4293915118
0.31630018 0.68755025 0.15603095 4291019968
0.31732741 0.68583918 0.15598182 4285820528
0.31835458 0.68412805 0.15593271 4285689198
0.3193818 0.68241698 0.15588358 4285952627
0.320409 0.68070585 0.15583447 4286215801
0.3214362 0.67899477 0.15578534 4287137414
0.32246339 0.6772837 0.15573621 4292203474
0.32347369 0.67532563 0.1558235 4294704891
0.32427853 0.67370975 0.15592061 4294705146
0.32530573 0.67199868 0.15587147 4294705146
0.32634419 0.67045224 0.15573142 4294639611
0.32759938 0.66872823 0.15549059 4294639611
0.32842112 0.66735935 0.1554513 4294639611
0.34937596 0.63245302 0.15444918 4289110683
0.3501977 0.63108414 0.15440987 4289242268
0.35143036 0.62903082 0.15435094 4289374109
0.35245755 0.62731975 0.15430181 4289440677
0.35348472 0.62560862 0.15425268 4290032044
0.35451195 0.62389755 0.15420356 4293124570
0.35553914 0.62218648 0.15415443 4294901751
0.35656631 0.62047535 0.15410532 4294901753
0.35759354 0.61876428 0.15405619 4294901753
0.35853839 0.61717701 0.15472434 4294901753
0.3594206 0.61570191 0.15503824 4294901753
0.36050716 0.6138863 0.15534237 4294901753
0.36112222 0.61286175 0.15531296 4294901753
0.36378744 0.6084221 0.15518549 4290755769
0.36497164 0.60681546 0.15494841 4290558390
0.36560622 0.60475653 0.15399843 4290361265
0.36659908 0.60321271 0.15389672 4289901228
0.36764318 0.60174859 0.15371118 4289901228
0.36868724 0.60028446 0.15352567 4289769642
0.37731573 0.58591127 0.15311302 4294901753
0.37812057 0.58429545 0.15321013 4294770681
0.37915057 0.58262932 0.15341909 4294770681
0.38009453 0.58105159 0.15365927 4294836217
0.381311 0.57946002 0.15366945 4294770681
0.38225347 0.57788563 0.15390928 4294836217
0.3834157 0.57616925 0.15374544 4294770681
0.38419992 0.57421291 0.15346296 4294836217
0.38541472 0.57262415 0.15347323 4294770681
0.38620147 0.57066393 0.15319037 4294836217
0.38738227 0.56914252 0.15263161 4294770681
0.39272368 0.56024486 0.15237617 4286674293
0.39359197 0.55860651 0.15290041 4283056199
0.40584937 0.53890479 0.15290333 4282469452
0.16650164 0.93304229 0.16565759 4282073407
0.16788463 0.93146807 0.16546746 4282139458
0.16871043 0.92987442 0.16539413 4282205764
0.17011876 0.92847931 0.16499937 4282139971
0.17124115 0.92675829 0.16473112 4282204994
0.17246176 0.92516077 0.16474068 4282401859
0.17329387 0.92333889 0.16463298 4282270782
0.17431438 0.92185676 0.16461809 4282270782
0.1749606 0.91969097 0.1644174 4282073660
0.17598779 0.91797984 0.16436829 4282270786
0.17701498 0.91626877 0.16431916 4282664771
0.1780422 0.91455764 0.16427003 4282861636
0.17906938 0.91284657 0.16422091 4282532673
0.18055135 0.91110414 0.16426323 4282335553
0.18112378 0.90942436 0.16412267 4282336579
0.18260434 0.90768433 0.16416506 4282599495
0.18355736 0.90624207 0.16414212 4282664775
0.18477283 0.90465301 0.16415191 4282796360
0.18561004 0.90282267 0.16404396 4282993739
0.18682469 0.90123504 0.16405377 4283256398
0.18766275 0.89940333 0.16394579 4283058506
0.18844464 0.8972227 0.16424699 4283256141
0.1892374 0.89568079 0.16441245 4283190861
0.19025466 0.89420432 0.16439766 4282993994
0.19137181 0.89233571 0.16505472 4282665800
0.19239688 0.8906281 0.16500568 4282666057
0.20490286 0.8697958 0.16440764 4281810237
0.20592789 0.86808825 0.1643586 4281941823
0.20695299 0.86638069 0.16430959 4282007358
0.20797807 0.86467308 0.16426055 4282401089
0.21740882 0.8489635 0.16380957 4282401855
0.21822888 0.84759742 0.16377033 4282533188
0.21925396 0.84588987 0.16372134 4282730567
0.22029589 0.84442878 0.16353619 4282730567
0.22130412 0.84247476 0.16362329 4282796360
0.22232917 0.84076715 0.16357425 4282598980
0.22314925 0.83940113 0.16353504 4282533441
0.24504009 0.80330169 0.16230772 4287138184
0.24604265 0.80128324 0.16101807 4288846750
0.24749504 0.8002283 0.1609828 4293979367
0.24857548 0.79816449 0.16035454 4294901753
0.24960269 0.79645336 0.16030541 4294901753
0.25062987 0.79474229 0.16025628 4294901753
0.27990636 0.74432319 0.15966982 4294705151
0.28087261 0.74398345 0.15994002 4293323756
0.31000555 0.6954549 0.15854648 4287797146
0.35763007 0.61595231 0.15541045 4294901753
0.35840794 0.61442065 0.15548944 4294901753
0.35934365 0.61290747 0.15589353 4294901753
0.36047354 0.61138505 0.15613329 4294901753
0.36155078 0.60977101 0.15622839 4294901753
0.36255938 0.60803086 0.15613133 4294704118
0.36334857 0.60587627 0.15540816 4293453795
0.36437571 0.60416514 0.15535903 4291348420
0.36543673 0.60294801 0.15503712 4290098608
0.38105014 0.57693934 0.15429042 4294901753
0.38207734 0.57522833 0.15424132 4294901753
0.38310453 0.5735172 0.15419218 4294901753
0.38413173 0.57180613 0.15414308 4294901753
0.39211008 0.55796564 0.15403271 4282071101
0.39329869 0.55670595 0.15456313 4281677369
0.40028292 0.5443337 0.15506402 4282796619
0.40108186 0.54192007 0.15414609 4282599754
0.40280411 0.54087126 0.15410894 4282862412
0.4035871 0.53906739 0.15337536 4282928204
0.40467569 0.53758419 0.1531606 4282534473
0.16499491 0.93407768 0.16739872 4281809722
0.16566563 0.93260419 0.16636437 4282269761
0.16658537 0.93107462 0.16608354 4282335555
0.16784054 0.92935061 0.16584271 4282139201
0.16866228 0.92798173 0.16580342 4282402372
0.18756273 0.89649761 0.16489954 4283059534
0.18838447 0.89512873 0.16486023 4283059534
0.18932068 0.89320242 0.16499628 4282994254
0.19033401 0.89165503 0.16544391 4282731594
0.19154669 0.89007199 0.16545315 4282534471
0.19246703 0.8883149 0.16608493 4283125327
0.19349211 0.88660735 0.16603589 4283124813
0.1943122 0.88524127 0.16599669 4282927946
0.20066768 0.87465435 0.16569275 4282468678
0.20169275 0.8729468 0.16564371 4282139713
0.20249908 0.87087876 0.16502017 4282007101
0.20386969 0.86932594 0.16483024 4281810236
0.20489581 0.86761659 0.16478115 4282007616
0.20592198 0.86590725 0.1647321 4281941822
0.2069481 0.86419791 0.164683 4282204221
0.20742278 0.86231452 0.16449219 4282532671
0.20865749 0.8606202 0.16472565 4282730053
0.2100984 0.85894477 0.16524175 4282467396
0.21091682 0.85721898 0.16491009 4282598983
0.21214858 0.85552961 0.1651437 4282796362
0.21317361 0.85382205 0.16509466 4282796362
0.21419872 0.8521145 0.16504566 4282927947
0.21522379 0.85040694 0.16499661 4282730308
0.21627367 0.84866166 0.16447349 4282533441
0.2172095 0.84710467 0.16419232 4282599235
0.21823564 0.84539533 0.16414322 4282730822
0.21926177 0.84368598 0.16409414 4282664774
0.22028789 0.84197664 0.16404505 4282730568
0.22141355 0.84028274 0.16413747 4282795590
0.22249015 0.83866876 0.16446869 4282664261
0.24303488 0.80353588 0.16322789 4286085491
0.24392386 0.80296832 0.16297075 4286414462
0.27918872 0.74386799 0.16051774 4293324275
0.30915195 0.69394898 0.15979478 4286019195
0.35927629 0.6099087 0.15695894 4294901753
0.36009803 0.60853982 0.15691964 4294901753
0.36112523 0.60682869 0.1568705 4294901753
0.36215246 0.60511762 0.1568214 4294901753
0.36276877 0.60409099 0.15679193 4294901753
0.39091399 0.55720699 0.15544593 4281677368
0.39210424 0.55594838 0.1559744 4282204224
0.39341632 0.55412489 0.15620437 4283059533
0.39444137 0.55241728 0.15615533 4282797900
0.39546648 0.55070972 0.15610632 4282469450
0.39649156 0.54900217 0.15605728 4282337609
0.39751664 0.54729462 0.15600827 4282534731
0.3983098 0.54488713 0.15509225 4282667085
0.39913154 0.54351825 0.15505296 4282534473
0.39974785 0.54249161 0.15502349 4282796619
0.13990349 0.97258651 0.16880596 4282075970
0.14072524 0.97121763 0.16876666 4282469961
0.14210051 0.96928781 0.16946518 4282402881
0.1423012 0.96749198 0.16923368 4282796358
0.14312297 0.9661231 0.16919439 4282730824
0.14470106 0.9645884 0.16999309 4282533958
0.14552113 0.96322238 0.16995387 4282336836
0.16233245 0.93521827 0.16914991 4281547326
0.16346814 0.93374097 0.16818465 4281547581
0.16442874 0.93204689 0.16747807 4281941055
0.16565098 0.93079704 0.16703224 4282532420
0.18866022 0.89246851 0.16593187 4283192403
0.18946508 0.89085269 0.16602899 4282864205
0.19026995 0.88923681 0.16612609 4282535241
0.19143058 0.88762927 0.1664754 4282797900
0.19264287 0.8860479 0.16648425 4283059789
0.19329293 0.88419849 0.16633622 4283059788
0.19413951 0.88224071 0.16621225 4282928716
0.19514981 0.88028264 0.16629952 4283058762
0.19619387 0.87881851 0.16611397 4283124556
0.19722106 0.87710744 0.16606481 4282665033
0.19824827 0.87539631 0.16601573 4282665546
0.1995147 0.87383699 0.16568397 4282402884
0.20054191 0.87212586 0.16563486 4282271295
0.2015691 0.87041479 0.16558571 4282073145
0.20978667 0.85672599 0.16519272 4282533703
0.21081388 0.85501492 0.16514362 4282664776
0.21184108 0.85330385 0.16509448 4282730569
0.21286829 0.85159272 0.16504538 4282862154
0.21389547 0.84988165 0.16499624 4282598981
0.21492265 0.84817058 0.16494714 4282665027
0.21594983 0.84645945 0.16489799 4282600005
0.21697706 0.84474838 0.16484888 4282665797
0.21800424 0.84303725 0.16479973 4282665540
0.21903145 0.84132618 0.16475064 4282730820
0.21993057 0.83941573 0.164911 4282861895
0.22104558 0.83778441 0.16521747 4282796359
0.22178704 0.83617944 0.16630663 4282730567
0.24096967 0.8047753 0.16476476 4285888365
0.24166735 0.80372578 0.16418119 4285888109
0.27802882 0.74359065 0.1630757 4290826466
0.30864361 0.69369107 0.16107033 4285948765
0.3081246 0.69181532 0.16103236 4286144348
0.35876405 0.60911131 0.15779705 4294901753
0.35912427 0.60768598 0.15818661 4294901753
0.35992911 0.6060701 0.1582837 4294836217
0.36072838 0.60437196 0.15842631 4294901753
0.39019629 0.55675185 0.15629387 4281416510
0.39074501 0.55473727 0.15680999 4282534213
0.39199823 0.55311829 0.15692303 4282993734
0.39282131 0.55127734 0.15688808 4282928201
0.39382663 0.549604 0.15666264 4282665803
0.39533231 0.54819638 0.15604825 4282534730
0.39635947 0.54648525 0.15599914 4282337865
0.14120643 0.96821517 0.16982844 4282205506
0.14182276 0.96718854 0.16979897 4282336836
0.14264451 0.96581966 0.16975968 4282599751
0.1442236 0.96428561 0.1705572 4282533959
0.14467303 0.96221888 0.17033733 4282272073
0.14600132 0.96022618 0.17101347 4282272848
0.14682136 0.9588601 0.17097424 4282272332
0.14764145 0.95749402 0.17093503 4282338125
0.16076246 0.93563718 0.17030756 4281218100
0.16125862 0.93459076 0.16954418 4281481786
0.16240115 0.93327475 0.16910587 4281349943
0.16298302 0.93194002 0.16878703 4281349688
0.19462068 0.87923831 0.16727403 4283124555
0.195237 0.87821162 0.16724457 4282861641
0.19626421 0.87650055 0.16719544 4282598983
0.19729139 0.87478948 0.16714631 4282665546
0.21906799 0.83851427 0.1661049 4282862405
0.21979873 0.83693016 0.16625077 4282665543
0.22090648 0.83544976 0.16686602 4282665543
0.22185719 0.83386624 0.16738585 4282468418
0.23916724 0.80448288 0.1654149 4286019442
0.27529082 0.74375838 0.16395858 4289314253
0.30740693 0.69136018 0.1618803 4290221943
0.3075448 0.69003004 0.1624161 4291405700
0.35873303 0.60531145 0.15969692 4294901753
0.3597602 0.60360038 0.15964782 4294901753
0.14596805 0.95753223 0.17095675 4282075721
0.14678982 0.95616335 0.17091745 4281878343
0.14789067 0.9544403 0.17137566 4282206793
0.14907074 0.95277774 0.17166446 4282206025
0.14915374 0.95057493 0.171618 4282141000
0.15018094 0.9488638 0.17156889 4281943619
0.1517445 0.94736475 0.17236269 4282009412
0.15276955 0.94565713 0.17231363 4281943362
0.15379466 0.94394958 0.17226464 4281746239
0.15481971 0.94224203 0.1722156 4281812031
0.15584482 0.94053447 0.17216659 4281746238
0.15686987 0.93882686 0.17211755 4281811261
0.15807979 0.93727893 0.17122349 4281941564
0.15896426 0.93574613 0.17075619 4281940794
0.15993793 0.93426132 0.17028867 4281678649
0.21961476 0.83454698 0.16789934 4282796360
0.22073545 0.83298761 0.16844025 4282665029
0.23641606 0.80631971 0.16831346 4281415477
0.23744044 0.80504942 0.16691871 4285426538
0.27481237 0.74345493 0.16452387 4286950082
0.30744344 0.68854821 0.16323456 4290152287
0.30734208 0.68706638 0.16405301 4289491014
0.35753685 0.60455287 0.16111012 4294901753
0.14703177 0.95300919 0.17226189 4282403659
0.14764808 0.95198256 0.17223242 4282206537
0.14867526 0.95027143 0.17218331 4282338123
0.14970249 0.94856036 0.17213418 4282075203
0.15106539 0.94666171 0.17282808 4282075203
0.15159054 0.94519663 0.17243433 4282074689
0.15254484 0.94327533 0.17226942 4282008895
0.15357204 0.94156426 0.17222032 4282140223
0.15459922 0.93985313 0.17217118 4281811005
0.15562645 0.93814206 0.17212208 4281810748
0.1564482 0.93677318 0.17208278 4281810748
0.2195181 0.83171201 0.16906661 4282336579
0.22073369 0.830796 0.16987535 4282270788
0.23472062 0.80638778 0.16833958 4282006331
0.30723566 0.6861496 0.16553965 4289557059
0.30782327 0.68406397 0.16511481 4290282065
0.21961936 0.82945484 0.17037383 4282007616
0.2205314 0.82783842 0.17150889 4281810496
0.22135149 0.82647234 0.17146967 4282073666
0.22278659 0.82408178 0.17140104 4282139459
0.22360668 0.82271576 0.17136185 4282139202
0.22463173 0.82100815 0.17131281 4281810237
0.22565682 0.81930059 0.1712638 4281612858
0.22639656 0.81750524 0.1703752 4281810236
0.22739609 0.81597835 0.17032996 4282073405
0.22844049 0.81410581 0.17069891 4282336319
0.22975715 0.81247032 0.17106771 4282336062
0.2307948 0.81036985 0.1707302 4282402112
0.23186707 0.80876094 0.17012046 4282205247
0.23318121 0.80730152 0.1692268 4282204479
0.30813673 0.68244791 0.16634578 4290612063
0.30871731 0.68074608 0.16644453 4290547040
0.30947205 0.67857456 0.16709466 4289361740
0.31029129 0.67665148 0.16662399 4289822544
0.31111306 0.6752826 0.1665847 4289824615
0.22000201 0.82540369 0.17175546 4282073921
0.22102922 0.82369262 0.17170635 4282139715
0.2220564 0.82198149 0.1716572 4282073666
0.22308363 0.82027042 0.17160811 4281810237
0.22411081 0.81855929 0.17155896 4281744444
0.22513802 0.81684822 0.17150986 4281876030
0.22616518 0.81513715 0.17146072 4282270016
0.2271924 0.81342602 0.17141162 4282270270
0.22821958 0.81171495 0.17136247 4282336319
0.31121859 0.67457634 0.16825455 4290480478
0.31142259 0.67311633 0.16738351 4290813569
0.31173247 0.67207307 0.16904192 4291472790
0.31209198 0.67008877 0.16900088 4291145885
0.31265718 0.66832191 0.16938065 4290883492
0.31272656 0.66657352 0.17088887 4291277991
0.31293368 0.66509694 0.17002326 4291015590
0.31283233 0.66361511 0.17084172 4291475623
0.31314063 0.66202015 0.17206678 4292264624
0.31355274 0.6607644 0.17162086 4291936174
0.31345141 0.65928257 0.17243932 4290885295
0.31399584 0.65841919 0.17380525 4290557359
0.31351838 0.6581164 0.17436936 4290427056
0.31383124 0.65479827 0.17431958 4290164657
0.3142083 0.65361989 0.17457275 4290164657
0.2611036 0.74043053 0.17792596 4288136688
0.313319 0.65400094 0.17515768 4290559669
0.31389928 0.65306169 0.17582311 4290559413
0.31359127 0.65250415 0.17707232 4291348931
0.31393805 0.6496684 0.17675529 4291085761
0.31451771 0.64873362 0.17741907 4290690748
0.31489769 0.64696938 0.1772518 4285623414
0.31420904 0.64818054 0.17866662 4290889150
0.31441921 0.64666593 0.17781709 4285689205
0.25755998 0.73815328 0.18354088 4291028217
0.31424549 0.64537442 0.1800181 4284439403
0.31373805 0.64339882 0.18001929 4284175973
0.25708252 0.73785043 0.18410501 4290896375
0.31342813 0.64344138 0.18168105 4286017916
0.25430122 0.73800629 0.18503131 4291423224
0.31237209 0.64135695 0.18362606 4289572539
0.31271395 0.64109808 0.18251435 4287993766
0.25360724 0.73738688 0.18688194 4291817464
0.25246969 0.73635036 0.18838127 4292802302
0.31134856 0.63857573 0.18447278 4289245107
0.25091833 0.73538822 0.18926114 4293000190
0.31046495 0.6368466 0.18750626 4289835961
0.25020066 0.73493308 0.19010907 4292869373
0.30998752 0.63654381 0.18807037 4289901756
0.24527556 0.73653454 0.19359903 4293787647
0.24609731 0.73516572 0.19355974 4293262843
0.24723709 0.73334605 0.19440858 4293000442
0.24774083 0.73242795 0.19348113 4292934392
0.24671321 0.73316008 0.19542661 4293000958
0.30793732 0.62885195 0.19222958 4289902526
0.30745888 0.6285485 0.19279487 4289968319
0.23530793 0.74337345 0.20030232 4294901753
0.23254433 0.74303532 0.20287029 4294901753
0.23315938 0.74201077 0.20284088 4294901753
0.22971235 0.74320185 0.20383538 4294901753
0.22878926 0.7430889 0.20469314 4294901753
0.22667719 0.7407288 0.20910501 4294770681
0.22507501 0.74024183 0.20967709 4294770681
0.37292051 0.59546715 0.15080839 4290033071
0.37394983 0.5937525 0.15075918 4290098866
0.37497914 0.59203786 0.15070994 4290098609
0.37611791 0.59058207 0.1504381 4292598228
0.39062476 0.56597561 0.14996172 4294901753
0.3914482 0.56460392 0.14992236 4294901753
0.39247748 0.56288928 0.14987314 4294770681
0.260178 0.78106695 0.15728709 4286741632
0.26079562 0.78003818 0.15725756 4286412923
0.26182491 0.77832353 0.15720834 4285623662
0.26285425 0.77660894 0.1571591 4285689708
0.27849984 0.75054669 0.15641089 4294768884
0.27932328 0.74917495 0.15637152 4294901753
0.27994087 0.74814618 0.15634198 4294901753
0.32893628 0.66653019 0.15399888 4294770683
0.32991955 0.66525984 0.15377069 4294770683
0.33063486 0.66349894 0.15316905 4294770683
0.33187619 0.66186589 0.15317804 4294770683
0.33269602 0.66006547 0.15307048 4294770683
0.33393654 0.65843385 0.15307951 4294770683
0.33475718 0.65663201 0.15297191 4294770683
0.33599687 0.65500176 0.15298097 4293322210
0.33681837 0.65319854 0.15287334 4287069824
0.33805716 0.65156972 0.15288244 4286545021
0.33887953 0.64976507 0.15277477 4286545791
0.34011751 0.64813763 0.15278392 4287861647
0.34108037 0.64652747 0.15302366 4288190095
0.34235126 0.64473504 0.15308559 4288650391
0.34314084 0.6428684 0.15331958 4288847770
0.34417012 0.64115375 0.15327036 4288913818
0.34519947 0.63943917 0.15322113 4288913817
0.34622875 0.63772452 0.15317191 4288716438
0.34725809 0.63600993 0.15312269 4288781974
0.3482874 0.63429528 0.15307346 4289110683
0.34911084 0.6329236 0.15303408 4288979097
0.36928543 0.59931701 0.15206929 4289967021
0.36990303 0.59828824 0.15203975 4289901228
0.37093234 0.59657359 0.15199052 4289901228
0.37220135 0.595011 0.15165807 4290098864
0.3732307 0.59329635 0.15160885 4290427573
0.37411928 0.5912804 0.15112367 4291939270
0.37519607 0.58966529 0.15121973 4294901496
0.3760789 0.58800048 0.1517444 4294901753
0.37690237 0.58662879 0.15170501 4294901753
0.38830501 0.56709862 0.15071705 4294901753
0.38957471 0.56553495 0.15038456 4294901754
0.39040881 0.56392813 0.1503105 4294901753
0.39162561 0.56233597 0.15032066 4294770682
0.39201397 0.56092036 0.15053967 4294770681
0.2513625 0.79299498 0.15906748 4294901753
0.25239182 0.79128033 0.15901826 4294901753
0.25342113 0.78956574 0.15896903 4294901753
0.25445044 0.7878511 0.15891981 4294901753
0.25547975 0.78613651 0.15887058 4294901753
0.25633496 0.78435284 0.1585355 4294901753
0.25701734 0.78249812 0.1579145 4290755512
0.25828445 0.78077751 0.15786351 4286740863
0.25949219 0.77928591 0.15781857 4285886323
0.26052293 0.77756894 0.15776928 4285557613
0.26155365 0.77585196 0.15771998 4285558124
0.26268497 0.7741341 0.15852602 4285887087
0.26371428 0.77241951 0.15847678 4286150259
0.2647436 0.77070487 0.15842757 4286545017
0.26577291 0.76899028 0.15837833 4286610808
0.26680222 0.76727563 0.15832911 4286216820
0.26783153 0.76556098 0.15827988 4285229926
0.26886088 0.7638464 0.15823065 4285295463
0.26989016 0.76213175 0.15818143 4285427306
0.2709195 0.76041716 0.15813221 4285558894
0.27194878 0.75870252 0.15808299 4285624690
0.27297813 0.75698793 0.15803376 4285756277
0.27400744 0.75527328 0.15798454 4285822070
0.27503675 0.75355864 0.15793532 4286281592
0.27558312 0.75157142 0.15702663 4289701026
0.27709448 0.75014836 0.15688601 4294966774
0.27836502 0.7485792 0.15679106 4294901753
0.27891693 0.74656534 0.15683304 4294770427
0.28018335 0.74498552 0.15768918 4293520880
0.31082308 0.69339484 0.15649568 4288716964
0.31189382 0.69184154 0.15576555 4289178028
0.3127054 0.69005346 0.15565906 4289309870
0.31395411 0.68840951 0.15566702 4290427836
0.31521901 0.68663687 0.15530038 4287334282
0.31584293 0.68505955 0.15482898 4285754739
0.31687438 0.68334138 0.15477966 4285228906
0.31790578 0.68162322 0.15473033 4285558384
0.31893724 0.67990506 0.154681 4285624434
0.32015249 0.67787349 0.15497984 4286150263
0.32095006 0.67631954 0.15526478 4286742400
0.32198513 0.67481345 0.15524912 4289637551
0.32258254 0.67272776 0.15505132 4292795100
0.32420415 0.67110473 0.15585576 4294836217
0.32546189 0.66937721 0.15561444 4294770682
0.32650253 0.66782755 0.15547408 4294770683
0.32771686 0.66613555 0.15525298 4294705147
0.32859498 0.66489327 0.15510225 4294705147
0.32925156 0.6627236 0.15418772 4294705147
0.33028299 0.66100544 0.15413842 4294705147
0.33155465 0.65943962 0.15380529 4294705147
0.33282629 0.65787381 0.15347216 4294639611
0.33385772 0.65615571 0.15342283 4294705146
0.33488914 0.65443754 0.15337351 4290558134
0.33568037 0.65256703 0.15360798 4286938240
0.33672312 0.65101421 0.15346734 4286742913
0.33774325 0.6491307 0.15350933 4286611070
0.33877465 0.64741254 0.15346001 4288123536
0.33992282 0.64585793 0.15369985 4288387220
0.34121817 0.64409691 0.15381922 4288518807
0.34204182 0.64228922 0.15371192 4288651161
0.3432785 0.64066488 0.15372068 4288783002
0.34410298 0.63885576 0.15361334 4288848024
0.34533882 0.63723278 0.15362215 4288848024
0.34608456 0.63522542 0.15358672 4288847511
0.3470867 0.633632 0.15363596 4288979097
0.34777546 0.63185811 0.15370996 4289176219
0.34897965 0.63006431 0.153992 4289307805
0.34980649 0.62825084 0.1538848 4289505184
0.35103998 0.62663227 0.15389347 4289439906
0.35186768 0.62481737 0.15378623 4290162861
0.3531003 0.62320018 0.15379494 4294045673
0.35392883 0.62138385 0.15368766 4294901753
0.3553572 0.62031311 0.15382241 4294901753
0.35593438 0.61808181 0.1534784 4294901753
0.35692191 0.61661202 0.15381594 4294901753
0.36578852 0.601834 0.15386708 4289967275
0.36663452 0.60079229 0.15364546 4289835690
0.36783496 0.59934402 0.15331627 4289769898
0.3686201 0.59744644 0.15276161 4289967020
0.36975825 0.59586596 0.15255176 4289967021
0.37057206 0.59402263 0.15250084 4290295987
0.37212303 0.5926159 0.15234126 4290624438
0.37256327 0.59043723 0.15218453 4294572528
0.37380016 0.58882624 0.15210584 4294901751
0.37476546 0.58730632 0.15252106 4294901753
0.37595218 0.58569813 0.15258552 4294901753
0.37660173 0.5836156 0.15260337 4294901753
0.37772855 0.58194441 0.15329608 4294901753
0.37875786 0.58022976 0.15324685 4294901753
0.37978721 0.57851517 0.15319763 4294901753
0.38493374 0.56994206 0.15295151 4294901753
0.38613859 0.56821686 0.15240161 4294901753
0.38724104 0.56656104 0.15148246 4294836217
0.38828346 0.56494135 0.15109237 4294836217
0.38955513 0.56337559 0.15075922 4294770681
0.39024341 0.56134492 0.151162 4294770424
0.39111787 0.55993277 0.15162839 4289899691
0.39196697 0.55877757 0.15234339 4283845198
0.1690539 0.927347 0.16436251 4282271299
0.16961615 0.92568856 0.16374913 4282336066
0.1704136 0.92399919 0.16341774 4282598211
0.17193598 0.92254609 0.16422468 4282466625
0.17296529 0.92083144 0.16417545 4282335806
0.1739946 0.91911685 0.16412623 4282205246
0.17502391 0.91740221 0.164077 4282401602
0.17605323 0.91568756 0.16402778 4282533443
0.17708252 0.91397297 0.16397856 4282533441
0.17811185 0.91225839 0.16392933 4282401602
0.17868654 0.9105792 0.16331536 4282204995
0.17969653 0.90853584 0.16297381 4282402630
0.18072793 0.90681767 0.16292447 4282665546
0.18175937 0.90509957 0.16287515 4282730312
0.18279082 0.90338141 0.16282582 4283059017
0.18395165 0.9019891 0.16321018 4282993224
0.18531705 0.90025598 0.16358475 4283058763
0.18634638 0.89854133 0.16353554 4282927178
0.18696396 0.89751261 0.163506 4283124557
0.24419388 0.80217957 0.1607691 4287137930
0.24447051 0.80063599 0.15987614 4287794579
0.24591196 0.79896337 0.15991928 4290491573
0.24686374 0.79738206 0.15963618 4293913320
0.24807476 0.79572481 0.15987188 4294901750
0.24883644 0.79391575 0.15939502 4294901752
0.2498792 0.79236293 0.15925437 4294901753
0.25113955 0.79063183 0.15901256 4294901753
0.25217095 0.78891367 0.15896323 4294901753
0.25320238 0.7871955 0.15891391 4294901753
0.25423384 0.78547734 0.15886459 4294901753
0.25485268 0.78444648 0.15883499 4294901753
0.25629669 0.78204107 0.15876593 4287860113
0.25732812 0.78032291 0.1587166 4286412668
0.25835955 0.77860475 0.15866728 4285688944
0.25939101 0.77688664 0.15861796 4285491818
0.26042241 0.77516848 0.15856862 4285491816
0.26145387 0.77345031 0.1585193 4285821292
0.2624853 0.77173215 0.15846997 4286084464
0.26351669 0.77001399 0.15842065 4286479222
0.26454815 0.76829588 0.15837133 4286808187
0.26557958 0.76657772 0.15832199 4286611321
0.26661104 0.76485956 0.15827267 4285492327
0.26764244 0.76314139 0.15822335 4285492327
0.26867387 0.76142329 0.15817402 4285295718
0.26970533 0.75970513 0.1581247 4285427306
0.27073675 0.75798696 0.15807536 4285493102
0.27176818 0.7562688 0.15802604 4285493105
0.27279961 0.75455064 0.15797672 4285427312
0.27383107 0.75283253 0.15792739 4286215541
0.27816308 0.74561626 0.15772022 4294638842
0.27877992 0.74457651 0.15840349 4294376186
0.31010392 0.69293875 0.15734535 4288256670
0.31051615 0.69117039 0.15644532 4288519584
0.31156456 0.68970025 0.15625903 4288718246
0.31281924 0.68788642 0.15606287 4288717989
0.31921411 0.67723387 0.15575705 4285163885
0.32003924 0.67585939 0.1557176 4285558641
0.3210707 0.67414123 0.15566826 4286544769
0.32208517 0.67217511 0.15575591 4288188312
0.32329607 0.67064047 0.15630822 4292267472
0.32411236 0.66884369 0.15620194 4294440688
0.32535642 0.66720843 0.15620968 4294770680
0.32617351 0.66541022 0.15610337 4294770681
0.32720751 0.66390634 0.15608755 4294770681
0.32801601 0.66212976 0.15555395 4294770681
0.32932216 0.66039604 0.15527366 4294770681
0.34520623 0.63393652 0.15451404 4288913050
0.34582511 0.6329056 0.15448444 4289044636
0.3468565 0.63118744 0.15443511 4288913050
0.34788796 0.62946934 0.15438579 4289373603
0.34891939 0.62775117 0.15433647 4289373603
0.34995079 0.62603301 0.15428714 4289702568
0.35098225 0.62431484 0.15423781 4291347646
0.35201368 0.62259674 0.15418848 4294901751
0.35304514 0.62087858 0.15413916 4294901753
0.35510796 0.61744225 0.15404052 4294901753
0.35615373 0.61569214 0.15446568 4294901753
0.35679561 0.61388701 0.1547977 4294901753
0.36485222 0.60155582 0.15481773 4290164402
0.36561227 0.6002028 0.15447085 4290098607
0.36636171 0.59868371 0.15421508 4289967021
0.36726192 0.59692013 0.15359543 4289967021
0.36851662 0.5951063 0.15339927 4289967023
0.36954802 0.5933882 0.15334995 4290690488
0.37161091 0.58995187 0.15325129 4294901753
0.37264234 0.58823371 0.15320197 4294901753
0.37356412 0.58625621 0.15337572 4294901753
0.37446499 0.58464509 0.15338713 4294901753
0.37549645 0.58292693 0.15333779 4294901753
0.37686449 0.58140677 0.15374643 4294901753
0.37770283 0.57957321 0.15363911 4294901753
0.37902263 0.57795417 0.15390283 4294901753
0.37985763 0.57619238 0.1542813 4294901753
0.38088694 0.57447773 0.15423208 4294901753
0.38191625 0.57276314 0.15418285 4294901753
0.38294557 0.5710485 0.15413363 4294901753
0.38408414 0.56916183 0.15336755 4294901753
0.38487688 0.56784546 0.15309206 4294901753
0.38563839 0.566585 0.15258045 4294901753
0.38935158 0.56039971 0.15240289 4289637035
0.39016598 0.55903369 0.15293393 4284305750
0.39100808 0.55816942 0.1534763 4282596416
0.40270841 0.53812778 0.15318853 4282927946
0.403326 0.537099 0.15315898 4282730825
0.40372378 0.5353536 0.15226021 4282665546
0.16579668 0.93001604 0.16587709 4282401347
0.16662011 0.92864436 0.16583771 4282335811
0.1675279 0.92700154 0.16515198 4282467396
0.16849944 0.92509848 0.1646962 4282598212
0.16993318 0.92369449 0.16398534 4282532418
0.17145653 0.92224199 0.16479112 4282400832
0.17248584 0.9205274 0.1647419 4282335552
0.17351516 0.91881275 0.16469267 4282401855
0.17414452 0.9166674 0.16463789 4282402116
0.17467076 0.91483092 0.16459116 4282335812
0.17591628 0.91324586 0.1645426 4282336324
0.17697006 0.91122931 0.16448635 4282336836
0.177992 0.90982431 0.16410246 4282271043
0.17873563 0.90792644 0.16410901 4282402885
0.18024752 0.90651298 0.16349208 4282600266
0.18127896 0.90479487 0.16344276 4282730309
0.1823104 0.90307671 0.16339344 4283124807
0.18304223 0.9009335 0.16404954 4283124807
0.1841605 0.89951277 0.16414833 4283124555
0.1849798 0.89765823 0.16409816 4282928205
0.18613611 0.89603025 0.16439055 4282928718
0.18720643 0.8943519 0.16485322 4282797133
0.18782401 0.89332312 0.16482368 4282862926
0.20240644 0.86848056 0.16439807 4282073405
0.20343576 0.86676592 0.16434884 4282139202
0.20446506 0.86505133 0.16429962 4282204993
0.20549439 0.86333668 0.16425039 4282335809
0.20652372 0.8616221 0.16420117 4282598211
0.20755301 0.85990745 0.16415195 4282598722
0.20837645 0.85853577 0.16411257 4282401858
0.24137895 0.80247098 0.1616579 4286085234
0.24273017 0.80168676 0.16134153 4286545536
0.24399009 0.80033129 0.16044374 4287071628
0.24502154 0.79861319 0.16039442 4288189596
0.24605295 0.79689503 0.16034509 4289240742
0.24708438 0.79517686 0.16029577 4293780449
0.24811582 0.7934587 0.16024643 4294901753
0.24894096 0.79208422 0.16020697 4294901753
0.27779314 0.74356735 0.16018233 4293390324
0.30890533 0.69217855 0.15876149 4286282368
0.30933204 0.6906566 0.15772739 4287138447
0.31041437 0.68968242 0.15726715 4287863708
0.32399535 0.66650689 0.15688999 4292466390
0.32502681 0.66478872 0.15684067 4294638839
0.32605824 0.66307056 0.15679134 4294770681
0.35614216 0.61240458 0.15562497 4294901753
0.35721263 0.61146659 0.15625653 4294901753
0.35808969 0.60997212 0.15654524 4294901753
0.36133271 0.6037429 0.15679778 4294901753
0.36241278 0.60277069 0.15633848 4294835960
0.36342949 0.60135442 0.1559765 4293980653
0.36411625 0.59927392 0.15557231 4292598490
0.3652527 0.59778088 0.15491696 4290295478
0.37680474 0.57853758 0.15436451 4294901755
0.37762991 0.57716304 0.15432505 4294901755
0.37861732 0.57528144 0.15439454 4294901754
0.37945256 0.57357442 0.1545102 4294901754
0.38072419 0.57200861 0.15417707 4294901755
0.38175562 0.57029051 0.15412775 4294901755
0.38278705 0.56857234 0.15407842 4294901755
0.38906661 0.55810308 0.1544892 4281809471
0.38980952 0.55740923 0.15489243 4281481019
0.39694703 0.54441696 0.15509461 4282272330
0.39765438 0.54269379 0.15462258 4282601550
0.39914685 0.5410347 0.15414357 4282731851
0.4000538 0.53971994 0.15410458 4282928718
0.40114659 0.53798926 0.15320042 4282993741
0.40217802 0.5362711 0.15315109 4282796875
0.40300316 0.53489655 0.15311164 4282731339
0.13865934 0.97246438 0.16853367 4282076487
0.13968867 0.97074974 0.16848443 4282272581
0.14051212 0.96937805 0.16844507 4282271552
0.1633309 0.93100202 0.1670624 4281809982
0.1644773 0.92968106 0.1666232 4282335812
0.16515742 0.92778254 0.16611998 4282270018
0.16642906 0.92621672 0.16578685 4282664004
0.18499486 0.89529002 0.16489898 4282796874
0.18578607 0.8934195 0.16513346 4282730824
0.18714085 0.89192832 0.16553937 4282994767
0.18793617 0.89038241 0.16570455 4282995278
0.18909581 0.88844788 0.16612166 4282535241
0.19012511 0.88673323 0.16607243 4282864206
0.19115441 0.88501865 0.16602321 4282797643
0.19218373 0.88330406 0.16597399 4282993739
0.19321306 0.88158935 0.16592476 4282993483
0.1940365 0.88021767 0.16588539 4282992969
0.19774203 0.87404507 0.16570817 4282599751
0.19835964 0.8730163 0.16567864 4282402627
0.19938894 0.87130165 0.16562942 4282336317
0.20041166 0.86923331 0.1652891 4282204474
0.20156313 0.86790383 0.16484965 4282270269
0.2024118 0.86605084 0.16474295 4282336067
0.20362344 0.86447179 0.16475113 4282401603
0.20447299 0.86261731 0.16464438 4282401090
0.2056838 0.8610397 0.1646526 4282598212
0.20653416 0.85918385 0.16454582 4282532931
0.20755148 0.85770881 0.16453022 4282401859
0.20823741 0.85546786 0.16433209 4282664776
0.20926882 0.85374969 0.16428277 4282467397
0.21009398 0.85237521 0.16424331 4282730569
0.21112542 0.85065705 0.16419399 4282598983
0.21277004 0.8490116 0.16498949 4282467395
0.21379936 0.84729695 0.16494027 4282533442
0.21482867 0.84558231 0.16489105 4282533956
0.21585798 0.84386772 0.16484182 4282731075
0.21688731 0.84215307 0.1647926 4282730820
0.21791661 0.84043849 0.16474338 4282861636
0.24073003 0.80244154 0.16294298 4285953649
0.2413111 0.80147898 0.16220579 4286216569
0.27576256 0.74408472 0.16126762 4292665060
0.30811629 0.6901902 0.15972038 4284832612
0.35518134 0.61179519 0.1567602 4294901753
0.35580018 0.61076432 0.15673061 4294901753
0.35669667 0.60908282 0.15725164 4294901753
0.35793734 0.60774481 0.15777545 4294901753
0.36064741 0.60378176 0.15737408 4294770681
0.36123115 0.60225797 0.15761793 4294836217
0.36190179 0.60059434 0.1571485 4294836217
0.36257371 0.59892857 0.156679 4294836217
0.38774067 0.5570057 0.15547545 4281218872
0.38893884 0.55573845 0.15600128 4281679168
0.39416924 0.5473901 0.15604274 4282797133
0.39519852 0.54567546 0.15599352 4282600523
0.39578587 0.54360414 0.1550907 4282272072
0.39640471 0.54257321 0.15506111 4282404172
0.13817991 0.97216028 0.16910012 4282142282
0.13879375 0.97025722 0.1689394 4282010183
0.13940963 0.96846074 0.168795 4281944132
0.14061363 0.96645421 0.1690913 4282272069
0.14181772 0.96499777 0.16946967 4282600266
0.14243484 0.9632352 0.16933106 4282271816
0.14264101 0.96142268 0.16910301 4282338382
0.14442624 0.95954978 0.16988845 4282075467
0.15991732 0.93319446 0.16871221 4281415477
0.1609775 0.93220013 0.16842248 4281218100
0.16237232 0.9305774 0.16763347 4281743931
0.16340536 0.92904359 0.16702074 4282072639
0.1644368 0.92732543 0.1669714 4282138432
0.18527173 0.89261883 0.16597502 4282534211
0.18609689 0.89124429 0.16593556 4282928199
0.18705428 0.88937116 0.16638038 4282665539
0.18810214 0.88771552 0.16663928 4282731846
0.18876433 0.88583189 0.16663899 4282863176
0.19000468 0.8842575 0.16658966 4282994508
0.19096255 0.88250345 0.16682388 4283125835
0.19211976 0.88093042 0.16666946 4283059529
0.1927277 0.8790924 0.16639939 4282993736
0.19395311 0.87704939 0.16681278 4282665803
0.19511586 0.87548184 0.16633953 4282534473
0.19637474 0.87375242 0.16609816 4282600007
0.19732943 0.87230885 0.16607441 4282599494
0.19854315 0.8707273 0.16608202 4282204988
0.19947851 0.86876637 0.16585895 4282073401
0.20053694 0.86719018 0.165245 4282270013
0.20156838 0.86547208 0.16519567 4282335807
0.20259982 0.86375391 0.16514635 4282401855
0.20363127 0.86203575 0.16509701 4282400575
0.20466268 0.86031759 0.16504769 4282663748
0.20569412 0.85859942 0.16499837 4282598213
0.20672555 0.85688132 0.16494904 4282664006
0.20775697 0.85516316 0.16489971 4282533190
0.20878841 0.85344499 0.1648504 4282533190
0.20961356 0.85207045 0.16481093 4282664776
0.21064501 0.85035235 0.1647616 4282664776
0.21174331 0.84851849 0.16541792 4282533188
0.2127737 0.84680212 0.16536865 4282533442
0.21380405 0.84508574 0.16531937 4282665028
0.21483442 0.84336931 0.16527011 4282862147
0.21552363 0.84148604 0.16536397 4282927682
0.21655437 0.83976907 0.16531466 4282796097
0.21759638 0.83793992 0.1658998 4282533953
0.21842226 0.83665556 0.16616859 4282468164
0.23841627 0.80353403 0.16476823 4286151028
0.23911658 0.80247968 0.16418473 4286019698
0.27528468 0.74377263 0.1625434 4290824403
0.30736223 0.68923748 0.16084518 4288642661
0.30770668 0.68756104 0.16137221 4287192381
0.35580292 0.60744482 0.1583644 4294901753
0.35694462 0.60664171 0.15918174 4294901753
0.35872966 0.60256541 0.15963988 4294901753
0.36003256 0.60149777 0.15903406 4294901753
0.36070198 0.59983337 0.15856607 4294901753
0.36161289 0.59831917 0.15781423 4294901753
0.38677984 0.55639631 0.15661068 4281679167
0.3875021 0.55486161 0.1567395 4282337094
0.38850752 0.55345368 0.15718816 4282468423
0.38982859 0.55172646 0.15732348 4282862153
0.39069194 0.55005872 0.15727755 4282993740
0.39140344 0.54829758 0.15698898 4282731084
0.39237046 0.54675192 0.1565067 4282533965
0.39358729 0.54505652 0.15628514 4282534477
0.39441243 0.54368198 0.15624568 4282403147
0.14154173 0.9621489 0.16970024 4282272073
0.14216059 0.96111798 0.16967064 4282469709
0.14394681 0.95924574 0.17045489 4282075721
0.14394931 0.95703334 0.17012973 4282206790
0.14498074 0.95531523 0.17008041 4282140999
0.14634946 0.95414072 0.17088352 4282404172
0.15828951 0.93425107 0.17031252 4281810235
0.15895347 0.93292332 0.169542 4281547064
0.15967233 0.93157881 0.16901472 4281678651
0.18692479 0.88655031 0.1675299 4283059785
0.18774991 0.88517576 0.16749044 4282928199
0.18878135 0.8834576 0.1674411 4282993992
0.18981279 0.8817395 0.16739178 4283257164
0.19084424 0.88002133 0.16734245 4282928712
0.19166936 0.87864679 0.167303 4282731590
0.19290708 0.87658501 0.16724381 4282665544
0.21436088 0.84084749 0.16621782 4283058756
0.21539232 0.83912933 0.1661685 4282467905
0.21653374 0.8372274 0.16658536 4282534213
0.21731006 0.83593392 0.16678394 4282533701
0.23602945 0.80419999 0.16616051 4286018931
0.23701103 0.80311656 0.16560608 4286281845
0.23767129 0.80201727 0.16510306 4286347636
0.2724998 0.74344784 0.16370979 4287739596
0.30736822 0.68646872 0.16291142 4289294916
0.30774349 0.68473953 0.16273095 4288045620
0.35460186 0.60668308 0.15978344 4294901753
0.35553306 0.60549998 0.16002864 4294901753
0.3580105 0.60210931 0.16048956 4294901753
0.35867786 0.60044551 0.16002308 4294901753
0.35934645 0.59877962 0.15955654 4294901753
0.1434689 0.9567287 0.17069735 4282403656
0.14450033 0.95501053 0.17064802 4282337866
0.14546177 0.95304155 0.17125429 4282403659
0.14608276 0.95126957 0.17111699 4282272073
0.14728129 0.94982809 0.17149284 4282535245
0.14848119 0.94783056 0.17178822 4282206532
0.14889947 0.94602627 0.17160738 4282074946
0.14972807 0.94409221 0.1714873 4282205506
0.15129291 0.94259781 0.17227767 4282205759
0.15232223 0.94088322 0.17222846 4282139968
0.15335153 0.93916857 0.17217924 4282007873
0.15438086 0.93745399 0.17213 4281941821
0.15561153 0.93562061 0.17139895 4281810492
0.15666647 0.93433189 0.17097621 4281876541
0.15750687 0.93255508 0.17041504 4281679162
0.15849389 0.93114769 0.17025113 4281415735
0.21659915 0.83446866 0.16798255 4282665542
0.21744715 0.83313078 0.16828208 4282402373
0.21809846 0.83186281 0.16845892 4282468166
0.23399594 0.80556393 0.16749068 4282795846
0.23489739 0.80443001 0.16703077 4285624684
0.27067989 0.74371696 0.16515842 4287802558
0.27129877 0.74268609 0.16512883 4281699769
0.3068549 0.68566972 0.16375124 4289425471
0.30726355 0.68443513 0.16329798 4289228605
0.3078115 0.68186355 0.16338268 4289624648
0.30881029 0.68020338 0.16403985 4289033288
0.30963463 0.67883027 0.16400042 4286861871
0.31021908 0.67674804 0.16381219 4286272051
0.31125051 0.67502987 0.16376287 4287198053
0.35422239 0.60486889 0.16120933 4294901753
0.35512224 0.60319263 0.16140512 4294901753
0.35618812 0.60164756 0.16135834 4294901753
0.35759443 0.60004067 0.16045728 4294901753
0.35841954 0.59866613 0.16041784 4294901753
0.14739108 0.94688016 0.17214371 4282402885
0.14821623 0.94550568 0.17210425 4282205506
0.14924765 0.94378752 0.17205493 4282271299
0.15020461 0.94197631 0.17268158 4282336579
0.1514377 0.94036609 0.1726865 4282204994
0.15226577 0.93854284 0.17258301 4282073408
0.15349802 0.93693405 0.17258796 4282073407
0.15428674 0.93502676 0.17223029 4281942077
0.15520735 0.93349159 0.17195146 4281942077
0.15605512 0.93244773 0.17172937 4282204993
0.21707663 0.83061814 0.16937134 4282204996
0.2183027 0.8293196 0.16988838 4281876545
0.23150739 0.80657959 0.16868122 4282007610
0.269117 0.74412227 0.16773006 4285501349
0.30850455 0.67961359 0.16530292 4290678626
0.30932802 0.67824191 0.16526355 4289165129
0.30973864 0.67644334 0.16437982 4289034058
0.31085581 0.67458528 0.16467829 4289760624
0.31132111 0.67270231 0.16484877 4291211680
0.21632749 0.82928419 0.17020859 4282073665
0.21708466 0.82813954 0.1706803 4281876285
0.21798086 0.8266204 0.17109463 4281876284
0.21888919 0.82448316 0.17176266 4282270786
0.21991849 0.82276851 0.17171344 4282204993
0.22094782 0.82105392 0.17166421 4282139200
0.22197711 0.81933928 0.17161499 4281744442
0.22300644 0.81762463 0.17156576 4281678649
0.22403574 0.81591004 0.17151654 4282138431
0.22506507 0.81419539 0.17146732 4282335809
0.22609437 0.81248081 0.1714181 4282335809
0.22654004 0.81061476 0.17053716 4282336579
0.2286274 0.80951852 0.17047532 4282336320
0.22932354 0.80763555 0.16958708 4282138944
0.2686376 0.74381822 0.16829652 4283401379
0.26904932 0.74313235 0.16827682 4281043384
0.31162912 0.67165202 0.1665123 4290949787
0.31183818 0.67018348 0.16564101 4290358425
0.31214705 0.66857332 0.16687301 4290489244
0.31256157 0.66732103 0.16642338 4290292125
0.21694908 0.82493383 0.17181279 4282139453
0.21756795 0.8239029 0.17178319 4282270787
0.21859939 0.8221848 0.17173386 4282204994
0.21963081 0.82046664 0.17168453 4282139200
0.22066224 0.81874847 0.17163521 4281744441
0.22169368 0.81703031 0.17158587 4281744440
0.22272512 0.81531221 0.17153655 4282138431
0.22375654 0.81359404 0.17148723 4282401602
0.22478798 0.81187588 0.1714379 4282401602
0.3124598 0.66583312 0.16724521 4290358434
0.21829133 0.82104045 0.17256556 4282336579
0.21891019 0.82000959 0.17253596 4282073407
0.21994162 0.81829143 0.17248663 4281744696
0.22097303 0.81657326 0.17243731 4281876281
0.22200447 0.8148551 0.17238799 4282139453
0.22303592 0.81313699 0.17233866 4282336832
0.22386107 0.81176245 0.17229919 4282402370
0.31253037 0.66350555 0.16833112 4290884004
0.31299379 0.66218865 0.16893095 4290885287
0.31346005 0.66029948 0.16910362 4290162336
0.31315199 0.65915513 0.16993532 4290556586
0.31345713 0.65702844 0.17213188 4290426031
0.31376639 0.65596193 0.17238885 4290294958
0.31371796 0.65287161 0.17254068 4290098864
0.31332985 0.65167654 0.17346697 4290164911
0.31363374 0.6506694 0.1751128 4290492855
0.31405324 0.64881408 0.17424934 4289702575
0.31435561 0.64781278 0.17589357 4288190359
0.31470874 0.64495963 0.17557959 4285887104
0.31415251 0.64484304 0.17753385 4284374124
0.31400034 0.64356142 0.17688431 4284703604
0.25516525 0.73862165 0.18115033 4291160059
0.31340593 0.64270997 0.17782046 4284570734
0.25470805 0.73831487 0.18240555 4291160057
0.31282374 0.6409173 0.17920992 4285031285
0.25214431 0.73812908 0.18401802 4291621114
0.25195622 0.73797321 0.18567172 4292015100
0.25212824 0.73713529 0.18593524 4292277245
0.31124678 0.63801932 0.18200853 4288981939
0.25040063 0.73701096 0.18655533 4292670460
0.25081289 0.73632419 0.18653561 4292473338
0.31042439 0.6360743 0.18368179 4289113264
0.24926177 0.73630089 0.18742371 4292934911
0.24967435 0.73561358 0.18740398 4292671740
0.31011665 0.63612801 0.18533617 4289376180
0.24906926 0.73487949 0.18970503 4293000958
0.24959563 0.73363507 0.18986103 4292606199
0.24490131 0.73638213 0.19117241 4293459453
0.24572645 0.73500758 0.19113295 4293197565
0.24675789 0.73328942 0.19108361 4292934907
0.24737677 0.73225856 0.19105402 4293263358
0.24314925 0.73764318 0.19207315 4293652476
0.24376811 0.73661232 0.19204356 4293787647
0.24637501 0.73348641 0.19273266 4293000185
0.30772221 0.63129491 0.18979886 4289968321
0.30813393 0.63060904 0.18977918 4289244598
0.307033 0.62680644 0.19119664 4289245627
0.2362932 0.74366432 0.19647594 4294901753
0.30610609 0.62669301 0.19205792 4290034626
0.23557408 0.74320823 0.1973256 4294901753
0.23250116 0.74322587 0.19857343 4294901753
0.23178054 0.74276882 0.19942485 4294901753
0.23239939 0.74173796 0.19939525 4294901753
0.22927393 0.74307692 0.20145097 4294901753
0.22491346 0.74315816 0.20519967 4294770681
0.22598031 0.74204272 0.20576477 4294770681
0.22371243 0.74239641 0.20661871 4294770681
0.22506221 0.74138671 0.20707431 4294770681
0.22275157 0.74178702 0.20775394 4294770681
0.22313021 0.74060374 0.20800816 4294770681
0.22278823 0.73896348 0.20911379 4294770681
0.22348392 0.73743415 0.21067658 4294770681
0.27609971 0.74908012 0.15639225 4294901751
0.27692655 0.74770278 0.1563527 4294901753
0.27754667 0.74666977 0.15632305 4294901753
0.31392768 0.68606669 0.1545832 4284702564
0.31496122 0.68434501 0.15453377 4284702051
0.31599477 0.68262333 0.15448435 4284899943
0.31702834 0.68090165 0.15443492 4285097579
