# .PCD v0.7 - Point Cloud Data file format
VERSION 0.7
FIELDS x y z rgb
SIZE 4 4 4 4
TYPE F F F U
COUNT 1 1 1 1
WIDTH 1090
HEIGHT 1
VIEWPOINT 0 0 0 1 0 0 0
POINTS 1090
DATA ascii
0.16443981 0.81364256 0.17936738 4280297511
0.16628757 0.81284475 0.17984566 4280297511
0.16763183 0.81214684 0.18026723 4280428840
0.16931129 0.81150556 0.18064934 4280494377
0.1261325 0.83279097 0.16899836 4281415994
0.12795836 0.8323555 0.16917592 4281284408
0.12970349 0.83109868 0.16934246 4281087800
0.13136393 0.83004391 0.1694781 4281285179
0.12344145 0.83241004 0.16926892 4281481787
0.12513201 0.83158821 0.16929199 4281415994
0.12681784 0.83073628 0.16945192 4281415738
0.12857476 0.82959902 0.16978988 4281415993
0.1300021 0.82910013 0.17008576 4281416506
0.27195784 0.74857062 0.22006343 4278282136
0.12103105 0.83159077 0.16941749 4281481788
0.12253354 0.83104217 0.16971554 4281679166
0.12411028 0.83006144 0.16964361 4281613373
0.12571248 0.82945895 0.16991152 4281613116
0.12790731 0.8287462 0.17033237 4281612856
0.26963228 0.74760586 0.21951537 4278216344
0.27041894 0.74781263 0.2201633 4278215573
0.11484417 0.83272862 0.16917084 4281152822
0.1162585 0.83213878 0.16913041 4281284408
0.11794957 0.8315711 0.16917118 4281481532
0.11972035 0.83059984 0.16950321 4281613375
0.12161567 0.82953322 0.16991344 4281679166
0.26845244 0.74687123 0.22117002 4278610328
0.11183445 0.83258909 0.16929388 4281218615
0.11358497 0.83193856 0.16877301 4281219128
0.11516988 0.83114523 0.1689792 4281153592
0.11077201 0.83135104 0.16949229 4281153079
0.11217693 0.83098966 0.16934812 4281153079
0.1082724 0.83112609 0.17025295 4280956213
0.10951305 0.83016896 0.17005137 4281087799
0.11088232 0.82975465 0.16990145 4281153590
0.10582215 0.83046603 0.17069562 4280824626
0.10704424 0.82981694 0.17058219 4280890420
0.10847554 0.82911605 0.17052689 4281022263
0.10457228 0.82933229 0.17142101 4280955443
0.10585056 0.82837194 0.17112263 4281021493
0.1072005 0.82783741 0.17114668 4281285178
0.1017902 0.82860094 0.17171559 4281218359
0.1031912 0.82774323 0.17162184 4281218357
0.10504738 0.82707715 0.17164864 4281284406
0.096881509 0.82877082 0.17186384 4281021751
0.098446481 0.82803595 0.1721092 4280824373
0.10023618 0.82763064 0.17194867 4281217590
0.10192447 0.82620579 0.17223163 4281349430
0.095985718 0.82797366 0.1723741 4280759351
0.097531967 0.82698148 0.17228921 4280627767
0.099158593 0.8259235 0.17244132 4280824888
0.10092329 0.82492656 0.17304529 4281218873
0.093150139 0.82744855 0.17253998 4280890933
0.094776489 0.82631004 0.1724721 4280824887
0.096477978 0.82528549 0.17287286 4280824886
0.097990222 0.82451504 0.17333788 4281022264
0.10025582 0.82407373 0.17358778 4281153851
0.090772159 0.82635653 0.17226902 4280759347
0.09181492 0.82614344 0.17262627 4280890933
0.093712084 0.82500315 0.17308253 4280824628
0.12567823 0.69071835 0.25687298 4287338658
0.12764387 0.68979234 0.25743011 4286027684
0.12937444 0.68893772 0.25794533 4285106842
0.13087946 0.68822128 0.25916344 4284449426
0.13265018 0.68747884 0.25983268 4283923082
0.13423011 0.68657804 0.26041612 4284252046
0.13609926 0.68553036 0.26101321 4284646290
0.13770884 0.68468803 0.26121864 4284646547
0.13940245 0.68369818 0.26196936 4284712083
0.14111236 0.68274796 0.26247317 4284646547
0.14249445 0.68191755 0.2632021 4284581011
0.14382924 0.68046433 0.26308554 4284712597
0.1193866 0.69150531 0.25645405 4283387721
0.12137615 0.69114512 0.25691858 4283387722
0.12334629 0.69084245 0.25764892 4283585103
0.12543234 0.69059926 0.25813076 4284176992
0.12668939 0.68988913 0.25856102 4289249222
0.14453955 0.6798051 0.26467061 4285107353
0.14547907 0.67905283 0.26473758 4284975767
0.14685802 0.67783087 0.26470038 4284778390
0.1478664 0.67726123 0.26504552 4284712597
0.15057699 0.67547446 0.26731366 4284449425
0.15114728 0.67448533 0.26674664 4284449424
0.15334252 0.67391217 0.26826021 4284712082
0.15485097 0.67306 0.26877654 4285106583
0.15610802 0.67234981 0.26920676 4285894554
0.10231695 0.69997805 0.25252539 4285558120
0.10307118 0.699552 0.25278354 4285163362
0.10534593 0.69823712 0.25299066 4284702555
0.10657094 0.69722277 0.25331697 4284636504
0.10830151 0.69592273 0.25381628 4284110671
0.11006621 0.69492584 0.25442028 4283847756
0.11157878 0.69407129 0.25493798 4283519562
0.11334345 0.69307441 0.25554198 4283387721
0.1156259 0.69258344 0.25641283 4283190599
0.11694594 0.69206774 0.25672054 4283190853
0.11865505 0.69166815 0.25754085 4283453768
0.15762727 0.66873181 0.27145654 4286023049
0.089149296 0.70489746 0.24841735 4281611569
0.0904098 0.70418537 0.24884878 4281742904
0.092037022 0.70349264 0.24965717 4283122756
0.093524769 0.70310515 0.25066927 4285754470
0.10198413 0.69955283 0.25279588 4285229155
0.10273836 0.69912672 0.25305402 4285032289
0.10500106 0.6978485 0.25382847 4284439896
0.1063057 0.69666064 0.25377074 4284439638
0.10784667 0.69559169 0.25453493 4283979342
0.10973247 0.69449937 0.25469148 4283650890
0.11107845 0.69377494 0.25580409 4283388233
0.11288273 0.6927467 0.25625864 4283387978
0.11480607 0.69230938 0.25718445 4283190599
0.11581171 0.69174123 0.25752866 4283190599
0.15706323 0.66730678 0.27188429 4286549908
0.082854085 0.70660895 0.247419 4281545517
0.084854417 0.70585042 0.248208 4281545519
0.086288802 0.70512551 0.24909507 4281611569
0.088119283 0.70445496 0.2492127 4281611569
0.08998251 0.70383894 0.24954306 4281742902
0.091703601 0.70306659 0.24992816 4282991169
0.093191952 0.70267993 0.25093973 4285557091
0.15639921 0.66590244 0.27277243 4286747549
0.080408499 0.70589966 0.24789247 4281742385
0.082120843 0.70575768 0.24828307 4281545519
0.083693035 0.70536423 0.24897607 4281545519
0.15586932 0.66403699 0.27371186 4286288031
0.071438871 0.70967543 0.24563186 4281348397
0.07267905 0.7089296 0.24632074 4281348397
0.074260995 0.70800573 0.24703844 4281479983
0.075614758 0.7070902 0.24838313 4281479983
0.077644706 0.70614445 0.24790283 4281742898
0.079633743 0.70573968 0.24918212 4281677105
0.15530832 0.66298914 0.27508339 4285237655
0.15594485 0.66216809 0.27511841 4286091930
0.24464613 0.81924486 0.17372786 4281282355
0.24565728 0.81867367 0.17407393 4281348403
0.24746653 0.81758744 0.17414327 4281283381
0.24931297 0.81612962 0.1735009 4280759094
0.25021061 0.81553489 0.17362702 4280496181
0.23985045 0.82010418 0.17324592 4280757807
0.24158576 0.81924719 0.17376256 4280954930
0.24345759 0.81848782 0.17404783 4281085745
0.24501963 0.81774157 0.17414115 4281283123
0.24682136 0.81645477 0.17410217 4281217844
0.24830955 0.81549388 0.17387192 4281021236
0.23758262 0.81953549 0.17362919 4280758062
0.23902503 0.81924915 0.17379162 4280757807
0.24063827 0.81812358 0.17400596 4280889393
0.24236426 0.81700438 0.17397895 4280889392
0.24401805 0.81600934 0.17385679 4280955441
0.2459553 0.81545085 0.17420207 4281152563
0.2348092 0.81925237 0.17383942 4280758579
0.23646475 0.81872815 0.17414841 4280627247
0.23800455 0.81746328 0.17411168 4280758319
0.23951903 0.81626046 0.17379043 4280823856
0.24158739 0.8157565 0.17359 4280955441
0.23346758 0.81833661 0.17442927 4280758321
0.23525168 0.81741124 0.17459479 4280692528
0.23667981 0.81604403 0.17425466 4280758320
0.23846246 0.8150419 0.17407481 4280758064
0.22892776 0.81825852 0.17453185 4280692269
0.23059471 0.8176868 0.17487049 4280823597
0.23228301 0.81675899 0.17509492 4280888877
0.23401332 0.81557775 0.17487349 4280888621
0.23541722 0.8152107 0.17479186 4281020207
0.22640714 0.81783259 0.1748286 4280823340
0.22799371 0.81717443 0.17496012 4280757805
0.22947457 0.81612599 0.1751539 4280757804
0.23102511 0.81514496 0.17518762 4280757547
0.23267606 0.81443709 0.17491573 4280823340
0.22531778 0.81690645 0.17542197 4280757548
0.2267331 0.81564772 0.17512129 4280823085
0.22822136 0.81471896 0.175054 4280888620
0.22237705 0.81640953 0.1757682 4280757548
0.22388284 0.81523573 0.17547448 4280757548
0.22557721 0.81418794 0.17511648 4280691754
0.21958752 0.81599438 0.17594336 4280757548
0.22121215 0.81475478 0.17578644 4280823340
0.22248754 0.81388026 0.17528678 4280823340
0.2171514 0.8154152 0.17645317 4280889133
0.21854579 0.81415719 0.17604499 4280823341
0.22016913 0.81297666 0.17558548 4280889134
0.21419059 0.81479949 0.1768741 4281085744
0.2159564 0.81389469 0.17674594 4281019951
0.2172561 0.81266934 0.17640267 4280954414
0.20977034 0.81520689 0.17667097 4281020207
0.21119867 0.81419724 0.17699189 4281085229
0.21294771 0.81334782 0.17687142 4281150765
0.21463223 0.81230247 0.17661001 4281282608
0.21624422 0.81147408 0.17657366 4281217330
0.2075025 0.81463814 0.17705424 4280954928
0.20867871 0.81405419 0.17727523 4280954415
0.21018383 0.81292921 0.17730692 4281150766
0.211827 0.81156707 0.1765676 4281216558
0.20220487 0.81485611 0.17698026 4281087540
0.20387179 0.81428438 0.1773189 4280955185
0.20573832 0.81363809 0.17761759 4280889134
0.20737772 0.81220812 0.17731994 4280889135
0.20915587 0.8114354 0.17720625 4281086001
0.19639805 0.81628662 0.17615223 4280756779
0.19784048 0.81600028 0.17631465 4280823085
0.19951333 0.81514335 0.17683201 4280889905
0.20127228 0.81410295 0.17720108 4280955698
0.20302686 0.81290233 0.17728731 4281020721
0.20460193 0.8117584 0.17728417 4281020464
0.20628302 0.8109709 0.17740019 4281217844
0.19337188 0.81614631 0.17627594 4280692267
0.19522323 0.81571704 0.1765231 4280954410
0.19673993 0.81486022 0.17704223 4281151792
0.19840394 0.81358707 0.17734851 4281086257
0.20015113 0.81229109 0.17726344 4280889133
0.2018218 0.81150901 0.17736605 4280954927
0.20348307 0.81062347 0.17725764 4281217328
0.19118951 0.81522101 0.17688172 4280626475
0.19253528 0.81507736 0.17695585 4280692781
0.19412987 0.81402522 0.17725927 4280889645
0.19585466 0.81309009 0.17743595 4281020976
0.19729099 0.81153715 0.17730898 4280823854
0.1991782 0.81075776 0.17737183 4280889133
0.18791053 0.81522346 0.17691889 4280560169
0.18963306 0.8145026 0.17735037 4280757805
0.19134778 0.81353974 0.17767137 4280758319
0.19306575 0.81228137 0.17743108 4280889647
0.19463266 0.8110671 0.17757599 4280955439
0.19562234 0.81041431 0.17748161 4280823854
0.18554088 0.81489724 0.17715138 4280822059
0.18686374 0.81384879 0.17720282 4280954158
0.18857415 0.81289154 0.17746484 4280889135
0.19014294 0.81177384 0.17769293 4280889135
0.19183671 0.81088853 0.1778647 4280889391
0.19308801 0.80998605 0.17777997 4281020720
0.15540126 0.82958072 0.16830412 4280626476
0.15717074 0.82858109 0.16890977 4280692012
0.15868746 0.82772422 0.1694289 4280823855
0.15969859 0.82715303 0.16977498 4281085742
0.16314849 0.82643735 0.17018279 4280823601
0.16388555 0.82531625 0.17087676 4280823342
0.16500708 0.82415414 0.17159192 4280757549
0.18307935 0.81440711 0.17748769 4280560426
0.18419918 0.8136394 0.17763375 4280823341
0.18565293 0.81238484 0.17772619 4280823342
0.18738246 0.81117058 0.17776069 4280823342
0.18900958 0.81031024 0.17788731 4280823599
0.19097607 0.8096292 0.17802861 4280823855
0.15128207 0.82944119 0.16844024 4281152820
0.15290794 0.82934493 0.16848138 4280824367
0.15456466 0.82851177 0.16898403 4280495402
0.15633416 0.82751209 0.16958967 4280758061
0.15785088 0.82665527 0.1701088 4280955440
0.15962037 0.82565564 0.17071444 4280954154
0.16138984 0.82465601 0.1713201 4280756778
0.16287236 0.82394183 0.17175022 4280756778
0.16447663 0.82363164 0.17192569 4280756777
0.17943767 0.81360996 0.17779434 4280494633
0.18141001 0.81332672 0.17779119 4280691756
0.18292882 0.81175649 0.17778906 4280758061
0.18457584 0.81094742 0.17786817 4280823597
0.18645146 0.81017035 0.1777429 4280823341
0.18793343 0.80948812 0.17815299 4280823598
0.15034363 0.82861477 0.16896933 4280824624
0.15162395 0.82801485 0.16933024 4280693038
0.15339342 0.82701522 0.16993588 4280495401
0.15516292 0.82601559 0.17054152 4280823853
0.15667962 0.82515877 0.17106065 4280757804
0.15844911 0.82415909 0.17166629 4280494629
0.16021863 0.82315946 0.17227195 4280428584
0.17682052 0.813164 0.17834081 4280363304
0.17862695 0.81265682 0.1781456 4280626220
0.18030389 0.81111741 0.17785752 4280757806
0.18181759 0.81047797 0.17804743 4280758062
0.14767207 0.82808918 0.16933036 4281022002
0.1491247 0.82749975 0.16968262 4280824111
0.15063968 0.82632172 0.16998158 4280757804
0.15236612 0.8254106 0.17049985 4280626475
0.15395905 0.82457507 0.17124407 4280560681
0.15567571 0.82387602 0.17187652 4280363302
0.15744521 0.82287633 0.17248218 4280362788
0.15921472 0.8218767 0.17308782 4280362276
0.17614754 0.81209826 0.17884816 4280560426
0.17748833 0.81108731 0.17861171 4280823597
0.17913204 0.80979472 0.17838681 4280823597
0.13782433 0.83087754 0.16769899 4281481787
0.13959201 0.8303414 0.16801415 4281284406
0.14085774 0.82916391 0.16873725 4281218615
0.14270909 0.82873464 0.16898441 4281021494
0.14464642 0.82781643 0.16953707 4281152819
0.1464154 0.82694918 0.17005973 4281087024
0.14792691 0.82596403 0.170387 4280889648
0.14947756 0.82487094 0.17044103 4280692269
0.15112071 0.82372379 0.17084555 4280429097
0.15297966 0.82278836 0.17150067 4280166183
0.15468989 0.82231957 0.17260148 4280231718
0.15627399 0.82137984 0.17343403 4280165926
0.15804347 0.82038021 0.17403968 4280231461
0.1593359 0.8195473 0.17454647 4280428583
0.16006936 0.81831074 0.17531283 4280625961
0.17313986 0.81145543 0.17945522 4280428839
0.17485659 0.8107338 0.17949383 4280626218
0.17633203 0.80929977 0.17840815 4280823342
0.13530372 0.83045161 0.16799574 4281350199
0.13664947 0.83030802 0.16806987 4281481530
0.13841897 0.82930839 0.16867551 4281481528
0.14018847 0.8283087 0.16928117 4281218358
0.14175211 0.82733715 0.16975364 4281283382
0.14351825 0.82641125 0.17010924 4281217846
0.1453647 0.82520831 0.17037652 4280954930
0.14707243 0.82415587 0.17062259 4280823344
0.14859325 0.82329667 0.17114313 4280428840
0.15011407 0.82243752 0.17166366 4280296998
0.15188837 0.82143521 0.17227095 4280034339
0.15352739 0.8206858 0.17350811 4280165925
0.15510274 0.81988329 0.17438589 4280297257
0.15687226 0.8188836 0.17499155 4280363306
0.15838894 0.81802684 0.17551067 4280429099
0.15973833 0.81695616 0.17616577 4280692013
0.17031255 0.81113672 0.17968841 4280494634
0.17179337 0.8102774 0.17984635 4280429096
0.17360426 0.80912739 0.17929955 4280560682
0.1327831 0.83002567 0.16829249 4281219385
0.13410549 0.82971913 0.16846904 4281547836
0.13564557 0.82902527 0.16888574 4281547580
0.13721395 0.82774812 0.16903828 4281415737
0.13901304 0.82653636 0.16946177 4281283894
0.14083801 0.82564682 0.17003413 4281348662
0.14234941 0.82465994 0.17036246 4281348662
0.14412372 0.82365757 0.17096974 4281020210
0.145898 0.82265526 0.17157704 4280428586
0.14741884 0.82179606 0.17209758 4280231205
0.14893965 0.82093692 0.17261811 4280099619
0.15071398 0.81993455 0.17322539 4280099621
0.15235549 0.818937 0.1740673 4280296746
0.15419821 0.81860042 0.17520066 4280362795
0.15586834 0.81760085 0.17580743 4280494893
0.15738502 0.81674403 0.17632654 4280692271
0.15915452 0.8157444 0.1769322 4280692014
0.16075669 0.81453103 0.17767382 4280494635
0.16210607 0.81346035 0.17832893 4280428842
0.16429567 0.81253177 0.1788851 4280429098
0.16564363 0.81183189 0.17930782 4280428840
0.16756396 0.81077617 0.17973228 4280494377
0.16915907 0.80967939 0.17977247 4280428584
0.17075901 0.80848837 0.17952733 4280494377
0.13167661 0.82917088 0.16884138 4281350715
0.13317552 0.82835233 0.16912216 4281416508
0.13465816 0.82727879 0.16926582 4281481787
0.13609377 0.8261807 0.16960117 4281152566
0.13787988 0.82502085 0.17018907 4281218103
0.13965417 0.82401848 0.17079635 4281217848
0.14117499 0.82315934 0.17131689 4281217335
0.14294931 0.82215697 0.17192419 4280690732
0.14472359 0.82115459 0.17253147 4280296487
0.14624444 0.82029545 0.17305201 4280099620
0.14776525 0.81943631 0.17357254 4280099621
0.14953956 0.81843394 0.17417984 4280428329
0.15131384 0.81743163 0.17478713 4280691759
0.15309097 0.81687343 0.17570612 4280823345
0.15469432 0.81585979 0.17623818 4280889138
0.15638198 0.81501424 0.17683254 4280757553
0.15806869 0.81416923 0.17742656 4280691759
0.1599201 0.81346208 0.17835371 4280560172
0.16143681 0.8126052 0.17887284 4280625965
0.16320631 0.81160557 0.17947848 4280560172
0.16473486 0.81029552 0.17969149 4280428585
0.16636164 0.80919564 0.17985019 4280494377
0.16782828 0.80795413 0.17952065 4280560170
0.16925888 0.80763823 0.17953315 4280560170
0.13036092 0.82782114 0.16954553 4281547834
0.13213333 0.82685214 0.16956301 4281416249
0.13357812 0.82559609 0.16987933 4281283894
0.13509893 0.82473695 0.17039986 4281415223
0.13687325 0.82373458 0.17100716 4281415738
0.13864754 0.82273221 0.17161445 4281284152
0.14016835 0.82187307 0.17213498 4280691244
0.14194266 0.82087076 0.17274228 4280493608
0.14371696 0.81986839 0.17334956 4280362022
0.14523779 0.81900924 0.1738701 4280296486
0.14675862 0.8181501 0.17439063 4280494122
0.14853293 0.81714773 0.17499794 4280756781
0.15023968 0.81646425 0.17658636 4280757551
0.15162054 0.81547362 0.17630582 4280889137
0.15360236 0.81428385 0.17673306 4280757550
0.15537664 0.81328154 0.17734034 4280823344
0.15689747 0.81242239 0.17786089 4280691758
0.15862644 0.81182414 0.17851049 4280691758
0.16026004 0.81084293 0.17923267 4280757551
0.16211721 0.80987298 0.1798692 4280823342
0.16348496 0.8083328 0.17980163 4280494377
0.16505581 0.80789238 0.17989565 4280428585
0.2689034 0.74762654 0.21597025 4278216857
0.27044585 0.74789572 0.21666849 4278216600
0.27163428 0.74791372 0.21693826 4278217114
0.12438104 0.82860595 0.16928168 4281613373
0.12582345 0.82831961 0.16944408 4281546810
0.12728649 0.82749081 0.16982828 4281481786
0.12922376 0.82636732 0.16995318 4281613112
0.13105063 0.82516897 0.17017689 4281481269
0.13253167 0.82417977 0.17066142 4281284148
0.13409229 0.82345068 0.17121796 4281283893
0.1358666 0.82244837 0.17182525 4281415479
0.13764089 0.821446 0.17243256 4280889134
0.13916172 0.82058686 0.17295308 4280428582
0.14093603 0.81958449 0.17356038 4280428582
0.14271031 0.81858218 0.17416766 4280362533
0.14423116 0.81772298 0.17468821 4280231460
0.14575197 0.81686383 0.17520875 4280692012
0.14752628 0.81586146 0.17581603 4280823085
0.14930058 0.81485915 0.17642333 4280757806
0.1508214 0.81400001 0.17694385 4280757805
0.15244029 0.8127228 0.17725317 4280757548
0.15411443 0.8116864 0.177765 4280691756
0.15572236 0.81066912 0.17829931 4280757549
0.1573981 0.80992472 0.17909858 4280823341
0.15906997 0.809035 0.17972234 4280888878
0.16085923 0.80787641 0.18007335 4280888878
0.16216062 0.80699837 0.1800181 4280494634
0.26833174 0.7471633 0.21685752 4278216600
0.26928878 0.74718863 0.21789256 4278216343
0.11974099 0.82846659 0.16824363 4281614143
0.12126639 0.82841754 0.16904317 4281613629
0.12302418 0.82761699 0.16941179 4281547835
0.12468073 0.82674843 0.16985232 4281415992
0.12625478 0.82571465 0.16981286 4281350456
0.12812071 0.82464361 0.1702261 4281678651
0.12983552 0.82343549 0.17060341 4281481270
0.13143167 0.82251894 0.17108236 4281219124
0.1330554 0.82172573 0.17172129 4281021747
0.1347997 0.82091242 0.17254767 4280758318
0.13646649 0.81994539 0.17338699 4280429354
0.1379873 0.81908619 0.17390753 4280297511
0.13976161 0.81808388 0.17451482 4280559913
0.14153591 0.81708151 0.17512211 4280559657
0.14305674 0.81622237 0.17564265 4280625964
0.14457756 0.81536323 0.17616318 4280954414
0.14635186 0.81436086 0.17677048 4280889133
0.14812616 0.81335855 0.17737778 4280889135
0.14969063 0.81230247 0.17768401 4280888878
0.15124209 0.8113026 0.17768541 4280757291
0.15295014 0.81040365 0.17799255 4280625963
0.15496549 0.80951315 0.17852691 4280757549
0.15678757 0.80832881 0.17924771 4280823340
0.15805839 0.80761093 0.17968266 4280889135
0.15979452 0.80678511 0.18017974 4280823342
0.26709813 0.74622124 0.2183477 4279519087
0.26788819 0.74610847 0.21850744 4279718780
0.11344389 0.83046824 0.16824368 4281153592
0.11530496 0.83009124 0.16824342 4281416763
0.11693776 0.82918209 0.16841844 4281548349
0.11867582 0.82818037 0.16877283 4281548349
0.12016386 0.82689136 0.16883257 4281482299
0.12183866 0.82596546 0.16925007 4281482298
0.12359909 0.82477725 0.16965213 4281285176
0.1253655 0.82384664 0.17001075 4281350456
0.12693308 0.82286948 0.17048658 4281548092
0.12871219 0.82186443 0.17109555 4281547579
0.1304913 0.82085931 0.17170447 4280955699
0.13201623 0.81999785 0.17222641 4280692269
0.13366863 0.81922984 0.17334399 4280298281
0.13529205 0.81844479 0.17434144 4280167209
0.13681288 0.81758565 0.17486197 4280232746
0.13858721 0.81658328 0.17546926 4280758319
0.14036149 0.8155809 0.17607656 4280495404
0.14188233 0.81472176 0.1765971 4280692785
0.14340314 0.81386262 0.17711763 4280757808
0.14517744 0.81286025 0.17772493 4280758062
0.14700033 0.81173873 0.17828834 4280823853
0.14867118 0.81069934 0.17807239 4280757804
0.15039791 0.81023353 0.17812935 4280691756
0.26612285 0.74508852 0.21901023 4280433757
0.2671296 0.74549705 0.21968645 4280500579
0.11224567 0.8297357 0.16871698 4281153590
0.11384951 0.82880402 0.16849516 4281350970
0.11574422 0.82718843 0.16856751 4281614141
0.11762515 0.82607567 0.16876858 4281482555
0.11919747 0.82525563 0.16908245 4281482555
0.12084055 0.82445139 0.16956708 4281482042
0.12250079 0.82357544 0.1700965 4281416506
0.12459205 0.8224206 0.17079557 4281285178
0.12592371 0.82157975 0.17130691 4281416764
0.12761907 0.82037401 0.17204267 4281022261
0.12931368 0.81935465 0.17266153 4280561199
0.13058448 0.81863678 0.17309645 4280428843
0.13251111 0.81816089 0.17455223 4280494379
0.13428544 0.81715852 0.17515953 4280429612
0.13580625 0.81629938 0.17568006 4280627504
0.13758056 0.81529701 0.17628735 4281021492
0.13935484 0.8142947 0.17689465 4280692270
0.14087568 0.81343549 0.17741519 4280758062
0.14239651 0.81257635 0.17793572 4280758062
0.14417082 0.81157404 0.17854302 4280889648
0.1460367 0.81015092 0.17894086 4280758061
0.14749971 0.80918425 0.1788213 4280626475
0.11008668 0.82897335 0.16922033 4281088054
0.11127452 0.82823074 0.16912703 4281350456
0.11283353 0.82711285 0.16917379 4281677881
0.11453559 0.82571882 0.16908325 4281744187
0.11646834 0.82461852 0.16951393 4281744444
0.11762968 0.82409531 0.16982818 4281744702
0.12642142 0.81858617 0.17317736 4280429613
0.12813611 0.81784999 0.17361854 4280364076
0.12944713 0.81716114 0.17423148 4280297770
0.1313367 0.81666028 0.17550668 4280494892
0.133111 0.81565791 0.17611398 4280890420
0.13463184 0.81479877 0.17663452 4281022261
0.13645644 0.81407714 0.17726193 4281087540
0.13820291 0.81288445 0.17798889 4280823858
0.13970126 0.81193489 0.17836964 4280692528
0.14122209 0.81107575 0.17889017 4280758320
0.14294539 0.8100248 0.17923348 4280955441
0.1446352 0.80878246 0.17921428 4280692782
0.10866512 0.82764053 0.16980013 4281285691
0.11017535 0.82673216 0.16965838 4281482556
0.11184055 0.82543153 0.1699443 4281809467
0.11365634 0.82417005 0.16982833 4281875258
0.11492714 0.82345212 0.17026326 4281612087
0.12346829 0.81825501 0.17341982 4280561198
0.12530889 0.81764358 0.17378135 4280560942
0.12696619 0.81676942 0.17475227 4280625965
0.12837896 0.81605071 0.17577612 4280494635
0.13016228 0.81515968 0.17646113 4280955698
0.13193659 0.81415731 0.17706843 4281219384
0.13345741 0.81329817 0.17758895 4281153847
0.13530146 0.81256729 0.17861539 4280890675
0.13696475 0.81169879 0.17909463 4280693042
0.13852686 0.81043428 0.17932408 4280693041
0.14023086 0.80936676 0.17957966 4280824369
0.14186789 0.80823261 0.17948434 4280823853
0.14315514 0.80762941 0.1798472 4280823853
0.10622752 0.82683706 0.17060491 4281481529
0.10758385 0.82629931 0.17063089 4281548091
0.10913142 0.82518566 0.17042549 4281350969
0.11082324 0.82403624 0.17076278 4281613370
0.11247876 0.82266539 0.1707854 4281744443
0.11389529 0.82173222 0.17135343 4281744442
0.11858217 0.81828737 0.17345726 4280692526
0.12079491 0.81756878 0.17388152 4280429867
0.12239093 0.81706572 0.17417802 4280429354
0.12396596 0.81636196 0.17460053 4280429355
0.12586054 0.81573492 0.17615139 4280625708
0.12738135 0.81487578 0.17667194 4281020464
0.12915565 0.81387341 0.17727922 4281284659
0.13092996 0.81287104 0.17788652 4281284661
0.13245079 0.8120119 0.17840706 4281022002
0.13422509 0.81100959 0.17901434 4280758831
0.13605173 0.8097505 0.17956732 4280758831
0.13763729 0.80867773 0.1797612 4280824625
0.13913099 0.80773282 0.17982996 4280890160
0.14077261 0.8073014 0.18008094 4280889646
0.1048418 0.82576668 0.17105618 4281612601
0.10662736 0.82490391 0.17098571 4281744186
0.10812479 0.82389939 0.17124358 4281481270
0.10954168 0.82258028 0.17129499 4281547321
0.11130115 0.82116067 0.17174239 4281613114
0.11308026 0.82015562 0.1723513 4281744442
0.1146052 0.81929415 0.17287326 4281350712
0.11613015 0.81843263 0.1733952 4280825138
0.11793238 0.81741452 0.17401208 4280429867
0.11968838 0.81642252 0.17461307 4280364074
0.12121333 0.815561 0.17513503 4280363561
0.12335448 0.81521845 0.17650473 4280626476
0.12485391 0.81444865 0.17696948 4281151794
0.12637471 0.81358951 0.17749003 4281480759
0.12814902 0.8125872 0.17809732 4281218869
0.12992331 0.81158483 0.1787046 4281153332
0.13143702 0.81036317 0.17905907 4281022003
0.13310771 0.809425 0.17951491 4280955953
0.13474104 0.8083272 0.17978165 4280758832
0.13679928 0.80737609 0.18008105 4280824626
0.13781591 0.8068018 0.18042903 4280890418
0.10382541 0.82464302 0.17171347 4281415480
0.10542955 0.82325792 0.1716775 4281416250
0.10695037 0.82239878 0.17219803 4281284920
0.10834393 0.8211683 0.17213573 4281416249
0.11029179 0.81987095 0.17256272 4281350197
0.1120709 0.8188659 0.17317162 4281481526
0.11359584 0.81800443 0.17369357 4280825396
0.1151208 0.8171429 0.17421551 4280233773
0.11689989 0.81613785 0.17482448 4280233001
0.11867901 0.8151328 0.17543338 4280495659
0.12020395 0.81427133 0.17595534 4280823340
0.12209281 0.81376165 0.17713769 4281086515
0.12367947 0.81294805 0.17792393 4281481272
0.12520032 0.81208891 0.17844447 4281349686
0.12688136 0.81101483 0.17865527 4281218871
0.12877204 0.8098104 0.17912231 4281218615
0.13039742 0.80879778 0.17948022 4281218615
0.13223168 0.80809653 0.17968349 4281021490
0.10258118 0.82324553 0.17271277 4281284667
0.10425513 0.82175732 0.17263195 4281154108
0.10577595 0.82089818 0.17315248 4281088315
0.10732494 0.81977111 0.17295547 4281154361
0.10928241 0.81858122 0.17338301 4281153590
0.11106151 0.81757617 0.17399193 4281284148
0.11258647 0.8167147 0.17451388 4280561453
0.1141114 0.81585318 0.17503582 4280364330
0.11589054 0.81484812 0.17564479 4280232744
0.11766966 0.81384307 0.17625371 4280757550
0.11919458 0.81298161 0.17677565 4281349687
0.12092163 0.81201035 0.17757858 4281415738
0.12254906 0.8113184 0.1782843 4281415737
0.12413352 0.81041002 0.17929478 4281152564
0.12575999 0.80936807 0.17908107 4281087284
0.12723048 0.80853045 0.17947057 4281218614
0.098295517 0.82345605 0.17281784 4281153849
0.09951672 0.82292032 0.1731392 4281219386
0.10136985 0.82169127 0.17325819 4281219387
0.10324849 0.82047105 0.17345004 4281153595
0.10484312 0.81956416 0.17376357 4281219387
0.10638459 0.81831747 0.17397605 4281088313
0.10810483 0.81707656 0.17434007 4280824627
0.10988392 0.81607151 0.17494899 4280823599
0.11140888 0.81521004 0.17547093 4280429096
0.11298393 0.81450623 0.17589346 4280429096
0.11494844 0.81364441 0.17641041 4280298024
0.11658414 0.8123709 0.17718929 4281086772
0.11801701 0.81147695 0.17773271 4281284408
0.11979612 0.81047189 0.17834167 4281284151
0.12157521 0.80946678 0.17895058 4281284151
0.12310016 0.80860531 0.17947252 4281349173
0.12496156 0.80817372 0.17972101 4281218100
0.091858536 0.82478011 0.17206401 4280824883
0.093795359 0.82399422 0.17253368 4281087285
0.095354661 0.823026 0.17282709 4281284662
0.096857764 0.8220796 0.17315285 4281415990
0.098475344 0.82114112 0.17325506 4281415991
0.10029976 0.81997281 0.17379719 4281219384
0.10207409 0.81897044 0.17440449 4281219898
0.10359491 0.8181113 0.17492503 4281022520
0.10511573 0.81725216 0.17544556 4280890934
0.10681517 0.81579775 0.17570768 4280496175
0.10870632 0.81456679 0.175906 4280429356
0.11016255 0.81399214 0.17624898 4280429098
0.11158437 0.8135609 0.17650247 4280494890
0.11446603 0.81162298 0.17768309 4280758833
0.11548267 0.81104869 0.17803104 4281022004
0.11700763 0.81018716 0.178553 4281153590
0.1188428 0.80925375 0.17911635 4281218612
0.12056584 0.80817705 0.17977087 4281284405
0.12202276 0.80741596 0.18023068 4281349942
0.089505225 0.82456797 0.17222477 4280890679
0.090717062 0.82364374 0.17228398 4280956213
0.092547819 0.82278568 0.17280017 4281218614
0.094101124 0.82145959 0.17312017 4281350199
0.095765069 0.82016706 0.17325693 4281350199
0.097407825 0.81923032 0.17358863 4281284151
0.099116765 0.81832671 0.17413479 4281416250
0.1008077 0.81728292 0.17488706 4281350457
0.1025258 0.81662852 0.17586707 4281021752
0.10394133 0.81575155 0.17640001 4280692787
0.10584778 0.81453341 0.1766689 4280429613
0.10769695 0.81327707 0.1767263 4280363563
0.10905316 0.81233376 0.1773015 4280560428
0.11125518 0.81126696 0.17794418 4280955184
0.1123291 0.81045359 0.17844129 4281021749
0.11455923 0.80940038 0.17907506 4281219384
0.11557586 0.80882609 0.17942303 4281285175
0.088311836 0.82280529 0.17242576 4280693554
0.089844882 0.82173866 0.17259935 4281022264
0.091383442 0.82075179 0.17262743 4281021752
0.093055263 0.81983376 0.17289707 4281087799
0.095332772 0.819022 0.1732716 4281219127
0.096857719 0.81816047 0.17379354 4281153335
0.098239504 0.81684846 0.17459954 4281153335
0.0998253 0.81586403 0.17519788 4281152821
0.10166732 0.81518126 0.17678432 4280955187
0.1030319 0.81428897 0.17711288 4280757295
0.10490783 0.81312269 0.17712849 4280559915
0.1066876 0.81198734 0.17754662 4280559659
0.10821254 0.81112587 0.17806856 4280822830
0.10973749 0.81026441 0.17859052 4281020978
0.11151659 0.80925936 0.17919947 4281153333
0.1132957 0.80825424 0.17980839 4281219383
0.11452352 0.80771565 0.18013149 4281219126
0.087112367 0.82103467 0.17262365 4280628016
0.088671103 0.82022792 0.17259444 4280890933
0.090765193 0.81974238 0.17287403 4281021748
0.099324271 0.81428713 0.17619216 4280626475
0.10042684 0.81335431 0.17676386 4280560682
0.10195178 0.81249285 0.17728579 4280494890
0.10373087 0.81148779 0.17789476 4280363049
0.10550999 0.81048268 0.17850368 4280560427
0.10703494 0.80962121 0.17902562 4280955184
0.10855991 0.80875975 0.17954758 4281153334
0.11033899 0.8077547 0.18015653 4281218869
0.1121181 0.80674958 0.18076545 4281218611
0.11313473 0.80617523 0.18111339 4281152818
0.085503198 0.81969261 0.1729674 4280562482
0.098232597 0.81242394 0.17737289 4280232486
0.099249244 0.81184959 0.17772086 4280232486
0.10077418 0.81098813 0.1782428 4280232744
0.10255329 0.80998307 0.17885177 4280298283
0.1043324 0.80897802 0.17946067 4280626994
0.10585734 0.8081165 0.17998263 4280890420
0.1073823 0.80725503 0.18050458 4281153336
0.10916141 0.80624998 0.18111354 4281218357
0.11068636 0.80538851 0.18163545 4281218100
0.084597617 0.81888676 0.17348322 4280562482
0.098239876 0.81055987 0.17854117 4280100902
0.099764794 0.8096984 0.17906311 4280363818
0.10154392 0.80869335 0.17967208 4280429869
0.10332303 0.8076883 0.180281 4280824372
0.10484798 0.80682677 0.18080294 4280956214
0.10637292 0.8059653 0.18132488 4281153335
0.10811332 0.80503851 0.18188527 4281087029
0.10984521 0.80431372 0.18231906 4281152820
0.097566955 0.80970007 0.17908806 4280231718
0.099058986 0.80860919 0.17975417 4280494634
0.10064791 0.80723625 0.18059595 4280824112
0.10214543 0.80618364 0.18123804 4280956212
0.10367039 0.80532211 0.18176 4281087797
0.10523649 0.80474734 0.18210171 4281153077
0.10722496 0.80424404 0.1823937 4281087027
0.12761344 0.69166911 0.25271341 4284908944
0.1291384 0.69080764 0.25323534 4283922565
0.12355417 0.69210237 0.25248984 4285955975
0.12537402 0.69171274 0.25330269 4287078829
0.12697925 0.6910243 0.25410864 4285106839
0.12877037 0.69030398 0.2549043 4284646288
0.13027453 0.68890268 0.25509039 4283988873
0.13197321 0.6879847 0.25556141 4284054409
0.13367288 0.68706614 0.25603276 4284251789
0.13534984 0.68603551 0.25682753 4284449168
0.13704951 0.68511695 0.25729889 4284449425
0.13857241 0.68425667 0.25782013 4284515217
0.14027335 0.68333739 0.2582919 4284515217
0.14194776 0.6823082 0.2590858 4284515218
0.1434142 0.68122989 0.26025015 4284515218
0.1446493 0.6801852 0.2597101 4284581011
0.11932667 0.69232064 0.25240296 4283453773
0.12056064 0.69175643 0.25274202 4283519568
0.12256415 0.6915645 0.25369704 4283848279
0.1239901 0.69109851 0.25508091 4284243554
0.12617961 0.69069809 0.25569949 4287540151
0.12744352 0.68998408 0.25613207 4285238425
0.1312353 0.68784201 0.2574299 4283988872
0.132752 0.68698514 0.25794902 4283988873
0.13477427 0.68584275 0.25864118 4284449425
0.13578542 0.6852715 0.25898728 4284514961
0.14311616 0.68113017 0.26149637 4284580756
0.14455512 0.67949921 0.2611739 4284647060
0.14584371 0.67832083 0.26228085 4284581781
0.14734884 0.67671084 0.26224926 4284581267
0.14830071 0.67595249 0.26231995 4284646289
0.10490105 0.6992771 0.24939348 4285295973
0.10642187 0.69841796 0.24991402 4284900960
0.10811716 0.69749779 0.25030214 4284506201
0.10970256 0.69665229 0.25058854 4284177491
0.11116465 0.69552445 0.25096345 4283980112
0.11272583 0.69418973 0.25130945 4283782733
0.11464572 0.69320846 0.25190181 4283519564
0.11651345 0.69250822 0.25258097 4283387979
0.11821905 0.69198871 0.2536732 4283256393
0.11997614 0.69139767 0.25459665 4283453516
0.1218895 0.69127178 0.25539058 4283453519
0.14868465 0.67613453 0.2645618 4284581011
0.15007779 0.67490453 0.26452947 4284514961
0.1510292 0.67414558 0.26460052 4284449423
0.10411995 0.69884372 0.25085455 4285229412
0.1055512 0.69834352 0.25115117 4285031776
0.10714322 0.69694811 0.25157782 4284571224
0.10879048 0.69590753 0.25211522 4284176465
0.11054623 0.69487822 0.25267404 4283979342
0.11217326 0.69362307 0.25285143 4283781708
0.11388404 0.69310457 0.25394297 4283322185
0.11527887 0.69234091 0.25429273 4283190599
0.11759938 0.69184548 0.25508168 4283256392
0.0842463 0.70698774 0.24598484 4281545517
0.085510217 0.70627373 0.24641745 4281545775
0.087026909 0.70541692 0.24693657 4281480753
0.089047395 0.70473796 0.24733825 4281611570
0.09090054 0.7038452 0.2478759 4281874488
0.092164457 0.7031312 0.24830851 4283911753
0.076152459 0.70834112 0.2428717 4281545776
0.077804983 0.70809215 0.24418849 4281677105
0.07919798 0.70753342 0.24491566 4281742897
0.081302986 0.70715296 0.24591605 4281742383
0.083559208 0.70638931 0.24636807 4281545518
0.085175581 0.70584613 0.24668941 4281545776
0.086692289 0.70498931 0.24720854 4281611569
0.087703422 0.70441806 0.24755462 4281611569
0.15713878 0.66420358 0.27075982 4285299584
0.15773362 0.66318381 0.27021173 4285033070
0.073278062 0.70841503 0.24285936 4281414190
0.075264126 0.70754671 0.2433802 4281545519
0.077133879 0.70723468 0.2447339 4281676849
0.078527473 0.70667672 0.24546055 4281808178
0.080201387 0.70627773 0.24647765 4281742641
0.156468 0.66372132 0.27225026 4286944671
0.15666823 0.66207492 0.27170622 4285826185
0.071900308 0.70895463 0.24371767 4281348397
0.073167667 0.70823866 0.24415141 4281414190
0.074768238 0.70710278 0.24508058 4281545776
0.075998634 0.70650589 0.24587856 4281611056
0.078112051 0.7061367 0.24659075 4281873714
0.15610637 0.6606425 0.27300408 4286352530
0.15685244 0.65957248 0.27319381 4285692537
0.15665285 0.65852451 0.27314487 4283125327
0.25109735 0.81477159 0.17291465 4280824631
0.24819316 0.81428087 0.17325656 4280824112
0.24928378 0.81406438 0.17337938 4280824628
0.24266873 0.81500393 0.17286864 4280889648
0.24409442 0.8145715 0.17312282 4280955442
0.24557813 0.81415963 0.17336346 4281087027
0.23961787 0.81486249 0.17299336 4280955443
0.24095307 0.81480753 0.173012 4280955442
0.23665316 0.81436151 0.17334239 4280954928
0.2381589 0.81405485 0.17351681 4280823856
0.24004506 0.81399953 0.17352922 4280955443
0.23411202 0.81393212 0.17364156 4280888876
0.2358923 0.81385887 0.17366643 4281019951
0.23157084 0.81350273 0.17394073 4280757547
0.23284145 0.81371742 0.17379116 4280823340
0.22850277 0.81343317 0.17402059 4280823084
0.22987674 0.81321645 0.17414019 4280757547
0.22368886 0.81329304 0.17416531 4280757547
0.22593577 0.8131116 0.17425247 4280692267
0.22733557 0.81278706 0.17443936 4280757804
0.22287175 0.81271857 0.17453505 4280757547
0.22004944 0.81192994 0.1750627 4280954928
0.22098267 0.81171358 0.17518729 4281020720
0.21793179 0.81157207 0.17531201 4281086257
0.21865325 0.81131995 0.17546153 4281152050
0.21318683 0.81114435 0.17563617 4281282351
0.21462852 0.81095159 0.17573997 4281610803
0.2160702 0.81075877 0.17584379 4281676339
0.21200241 0.81057018 0.17601007 4281611059
0.21341661 0.81018567 0.17623435 4282266678
0.2088391 0.81028503 0.17622618 4281479992
0.21013962 0.81006837 0.17634661 4281808698
0.20463011 0.81007254 0.1764091 4281546036
0.20600408 0.80985582 0.17652869 4281480759
0.20776714 0.80985451 0.17650869 4281676859
0.20188177 0.80998218 0.1764982 4281217584
0.20370053 0.80935436 0.17687023 4282465595
0.19759516 0.81000602 0.17653395 4280955692
0.19899499 0.80968142 0.17672083 4281152302
0.20039482 0.80935687 0.17690772 4281217841
0.19505401 0.80957663 0.17683312 4280955441
0.19638921 0.80952168 0.17685176 4281086769
0.19183446 0.8092196 0.17709492 4280889648
0.19350708 0.80880755 0.17733346 4281611316
0.1953125 0.80849808 0.17750606 4282399291
0.18919064 0.80903471 0.17724206 4280889648
0.19038393 0.80857372 0.17751691 4281086257
0.19209294 0.80814111 0.17776787 4281611059
0.18471336 0.80951256 0.17699546 4280823598
0.18631369 0.80900812 0.17729272 4280757549
0.1880227 0.80857551 0.17754368 4280889648
0.18191737 0.80922711 0.17720741 4280692526
0.18329133 0.80901045 0.17732699 4280758062
0.17759593 0.80887097 0.17748171 4280823855
0.17885219 0.80840993 0.17775583 4280823855
0.18084267 0.80845773 0.17770235 4280758060
0.17505474 0.80844158 0.17778088 4280692269
0.17653891 0.8082248 0.17789923 4280758062
0.17806616 0.80782825 0.17812972 4280758062
0.17353114 0.80790359 0.1781361 4280626476
0.17522708 0.80772257 0.17822951 4280758062
0.17116046 0.80722243 0.17859104 4280560170
0.17243107 0.80743712 0.17844145 4280691756
0.16632934 0.80715418 0.1786909 4280625965
0.16811034 0.80689406 0.1788329 4280494378
0.1698899 0.80700773 0.17874064 4280494377
0.27107069 0.7479831 0.2145409 4278215828
0.16353334 0.80686879 0.17890283 4280297511
0.16535053 0.80664146 0.17902385 4280494634
0.26937658 0.74769682 0.21474035 4278216857
0.27030981 0.74748045 0.21486494 4278216600
0.16099216 0.8064394 0.17920201 4280692269
0.16243386 0.80624658 0.17930582 4280363304
0.16353697 0.80593425 0.17948855 4280231720
0.15140149 0.80968159 0.17728315 4280625963
0.15286595 0.8090874 0.17763829 4280691756
0.15437348 0.80831349 0.17810556 4280757805
0.15598799 0.80727708 0.17873609 4280823340
0.15794131 0.8062979 0.17932673 4280954413
0.1600195 0.80590093 0.17955099 4280625963
0.16122194 0.80548072 0.17980018 4280428840
0.26639044 0.74544662 0.21618605 4280039771
0.14928384 0.80932379 0.17753246 4280692268
0.15030324 0.80874789 0.17788137 4280560426
0.15173487 0.80802792 0.17831573 4280692012
0.15369874 0.80745137 0.17865391 4280758062
0.11888205 0.82401192 0.16868538 4281548348
0.12041113 0.82314813 0.16920874 4281613371
0.12234649 0.82242775 0.16963737 4281350970
0.12363795 0.82163602 0.17011836 4281350971
0.12550803 0.82026875 0.17095327 4281153849
0.1480169 0.80817455 0.17826776 4280626732
0.1490363 0.80759865 0.17861667 4280560427
0.11634089 0.82358253 0.16898455 4281875519
0.11820732 0.8231498 0.16923374 4281613116
0.11973638 0.82228595 0.1697571 4281547579
0.12126544 0.82142216 0.17028044 4281482298
0.12304938 0.82041436 0.17089103 4281153849
0.12481175 0.81949645 0.17144553 4280759349
0.12644489 0.81911784 0.17166357 4280430382
0.14462869 0.80760199 0.17866667 4280823853
0.14649512 0.80716926 0.17891586 4280561454
0.14776936 0.80644941 0.17935199 4280429612
0.11549744 0.82250488 0.16966999 4281809980
0.11702655 0.82164103 0.17019336 4281613116
0.11855561 0.82077724 0.17071672 4281350457
0.12008467 0.81991345 0.17124006 4281219383
0.12180758 0.81902891 0.17177413 4280825138
0.12390372 0.81868839 0.17196275 4280430128
0.14175016 0.80674154 0.17924002 4280955183
0.14356489 0.80652446 0.17935461 4280758060
0.14522818 0.80602002 0.17965114 4280561197
0.11457154 0.8208521 0.17071684 4281678650
0.11584578 0.82013232 0.17115296 4281416249
0.11735327 0.81935835 0.17162025 4281088053
0.11907257 0.8186202 0.17206259 4280824882
0.12009197 0.8180443 0.1724115 4280627503
0.13937768 0.80652767 0.1794021 4280693037
0.14084211 0.80593348 0.17975722 4280824364
0.14234966 0.80515957 0.18022451 4280889130
0.11738211 0.81739938 0.17284776 4280560683
0.13505259 0.80710602 0.17909069 4280758834
0.13607197 0.80653018 0.1794396 4280824371
0.1380634 0.80565947 0.1799618 4280693298
0.14014584 0.80516124 0.1802495 4280758829
0.13098235 0.80754048 0.17886651 4281284149
0.13214682 0.80701584 0.17918158 4280955441
0.13369948 0.80631632 0.17960168 4280758577
0.13556592 0.80588359 0.17985086 4280824627
0.13658531 0.80530769 0.18019977 4280890166
0.12589638 0.80761623 0.17887913 4281283893
0.12748641 0.80741733 0.178985 4281284150
0.12920573 0.80667919 0.17942742 4281218101
0.13106088 0.80603075 0.17981184 4281020977
0.13276991 0.80559814 0.1800628 4280889650
0.11265172 0.81323349 0.1755148 4280429096
0.11421379 0.81259972 0.17589359 4280494890
0.11520017 0.8117938 0.17638706 4280955441
0.1235239 0.80740237 0.17904122 4281480502
0.12468836 0.80687773 0.17935628 4281480759
0.12624101 0.80617821 0.17977639 4281283637
0.12802495 0.80517042 0.18038698 4281086514
0.11027922 0.81301963 0.17567688 4280363305
0.11197698 0.81237137 0.17606315 4280560683
0.11331224 0.81152827 0.17657582 4280692783
0.11495259 0.81006873 0.17747127 4281087798
0.11673653 0.80906093 0.17808186 4281219124
0.11829859 0.8084271 0.17846064 4281284147
0.12004951 0.80718935 0.17921579 4281284404
0.12222823 0.80637294 0.17970175 4281415478
0.12369985 0.80574882 0.18007556 4281415478
0.12522893 0.80488497 0.18059891 4281152564
0.12694822 0.80414683 0.18104127 4280889648
0.10977463 0.8119992 0.17632243 4280626221
0.1104552 0.81136608 0.17671123 4280823599
0.11283131 0.8106454 0.17713486 4280955956
0.11351334 0.80963844 0.17775795 4280956213
0.11631664 0.8080548 0.17871743 4281284405
0.11759086 0.80733496 0.17915356 4281218612
0.11937476 0.80632716 0.17976414 4281284405
0.12115869 0.80531943 0.18037473 4281349686
0.12268776 0.80445558 0.18089809 4281349685
0.12411939 0.80373561 0.18133242 4281021234
0.12591459 0.80294347 0.18180771 4280824368
0.091438897 0.8190006 0.17215073 4280955441
0.09286458 0.81856817 0.1724049 4281087541
0.094579555 0.81784803 0.17283604 4281087796
0.096363455 0.81684023 0.17344661 4281087284
0.097555175 0.81554538 0.17424415 4280955442
0.1094431 0.8100729 0.17753376 4281021490
0.11488134 0.80660504 0.17964308 4281218613
0.11641005 0.80582625 0.18011318 4281152820
0.11819398 0.80481845 0.18072382 4281284405
0.11997792 0.80381066 0.18133435 4281152818
0.12155721 0.80310494 0.181758 4281020977
0.12290681 0.80262226 0.1820446 4280955184
0.088822842 0.81914634 0.17209028 4280825396
0.090254463 0.81842643 0.17252462 4281020464
0.091783553 0.81756258 0.17304799 4281020977
0.093567453 0.81655478 0.17365856 4281021489
0.095351353 0.81554705 0.17426915 4280824626
0.096880458 0.8146832 0.17479251 4280692782
0.098154686 0.81396335 0.17522864 4280560937
0.11370023 0.80518126 0.18054944 4281152818
0.1152293 0.80431747 0.1810728 4281153075
0.11704073 0.80350137 0.18156292 4281022000
0.11871096 0.80266142 0.18206966 4280824876
0.086281665 0.81871694 0.17238945 4280562482
0.087713301 0.81799698 0.17282379 4280496690
0.08926595 0.81729746 0.1732439 4280758576
0.090685271 0.81662887 0.1736462 4280823855
0.092810206 0.81511766 0.17456831 4280758060
0.094339266 0.81425381 0.17509167 4280495147
0.095868357 0.81339002 0.17561504 4280298280
0.097142585 0.81267017 0.17605117 4280101157
0.1114139 0.80460793 0.18093583 4281218356
0.11268814 0.80388808 0.18137197 4281021489
0.11387621 0.80352771 0.18158379 4281087538
0.083305702 0.81800032 0.17287378 4280627761
0.084765822 0.81742418 0.17321773 4280693554
0.086532526 0.81648827 0.17378341 4280693297
0.088057972 0.81655896 0.17372106 4280693552
0.091691107 0.81360233 0.17553133 4280232229
0.093158469 0.81274509 0.17605129 4280101158
0.094687574 0.81188124 0.17657465 4279969572
0.096216649 0.81101745 0.17709801 4280100902
0.10811184 0.80367589 0.18155906 4281087028
0.10978087 0.80314744 0.18187055 4281087540
0.11099766 0.80266726 0.18215713 4280956211
0.0822936 0.81670713 0.17369631 4280693040
0.083567813 0.81598729 0.17413244 4280626989
0.084842063 0.81526744 0.17456858 4280560683
0.08705315 0.81339669 0.17571501 4279904034
0.088507324 0.81310803 0.17587876 4280166436
0.090193808 0.81224412 0.17640033 4280034850
0.091977708 0.81123632 0.17701091 4279838245
0.093506798 0.81037253 0.17753428 4279837988
0.095035858 0.80950868 0.17805763 4280100388
0.096819758 0.80850095 0.17866822 4280363047
0.098435007 0.80727762 0.17941588 4280560683
0.099454388 0.80670172 0.17976479 4280823855
0.1052061 0.80358565 0.18164994 4281087795
0.10675874 0.80288613 0.18207003 4280955954
0.10837214 0.8021301 0.18252485 4280956211
0.081281506 0.81541395 0.17451884 4280495663
0.08246956 0.81505358 0.17473066 4280429613
0.084002286 0.81325525 0.17583974 4279969060
0.085868701 0.81282252 0.17608891 4279969316
0.087397791 0.81195867 0.17661227 4279903008
0.089181706 0.81095088 0.17722286 4279903008
0.090965606 0.80994314 0.17783344 4279640351
0.092494696 0.80907929 0.1783568 4279706145
0.094023779 0.8082155 0.17888016 4280165925
0.095807657 0.8072077 0.17949073 4280428840
0.097591609 0.80619991 0.18010134 4280823341
0.099120669 0.80533612 0.18062468 4281020977
0.10090457 0.80432832 0.18123527 4281021491
0.10268851 0.80332053 0.18184586 4281087797
0.10412013 0.80260062 0.1822802 4281022005
0.10582916 0.80216795 0.18253116 4281087797
0.083496757 0.81247514 0.17633468 4279968546
0.084833041 0.81136501 0.17701471 4279837216
0.086385705 0.81066549 0.1774348 4279771166
0.088169605 0.80965769 0.17804539 4279639836
0.089953505 0.8086499 0.17865597 4279574300
0.091482617 0.80778611 0.17917933 4279771424
0.093011677 0.80692226 0.17970268 4280427814
0.09479557 0.80591452 0.18031326 4280624935
0.096579507 0.80490673 0.18092386 4280823084
0.098108582 0.80404294 0.18144721 4280954926
0.099892467 0.80303514 0.18205778 4281021232
0.10157898 0.80217117 0.18257937 4281218869
0.10328799 0.80173856 0.18283033 4281284408
0.084185533 0.80973262 0.17804551 4279573274
0.085204937 0.80915672 0.17839442 4279573274
0.086988837 0.80814898 0.17900506 4279573530
0.088772722 0.80714118 0.17961559 4279770908
0.090352081 0.80643547 0.18003926 4279836703
0.091999575 0.80562907 0.18052521 4280296740
0.093952172 0.80483681 0.18099871 4280559399
0.095736109 0.80382901 0.1816093 4280560170
0.097265169 0.80296522 0.18213266 4280954927
0.09853939 0.80224538 0.18256879 4281020975
0.083004765 0.80822384 0.17900513 4279572762
0.084024146 0.80764794 0.17935404 4279573018
0.085808046 0.80664021 0.17996462 4279507995
0.087591946 0.80563241 0.18057521 4279771166
0.088780031 0.8052721 0.18078703 4279902751
0.082330033 0.80736172 0.17955349 4279573275
0.083205879 0.80633408 0.18018726 4279573532
0.084795959 0.80534697 0.18078715 4279573532
0.086603433 0.8045035 0.18129447 4279705374
0.082254805 0.80491757 0.18108633 4279573789
0.083664678 0.80418324 0.18152992 4279573788
0.08539544 0.803765 0.18177164 4279639581
0.081580058 0.80405545 0.18163468 4279508765
0.082599439 0.80347955 0.18198359 4279508765
0.12481891 0.69259673 0.25098473 4285301902
0.12583828 0.69202089 0.25133362 4285434004
0.12889278 0.69122779 0.25179464 4283790721
0.12991269 0.69051844 0.25222719 4283790980
0.13127255 0.68957257 0.25280398 4284119689
0.13297178 0.68855047 0.25342453 4284251532
0.13484038 0.68755704 0.25402513 4284383116
0.13603209 0.68626213 0.25482267 4284580495
0.13756116 0.68539834 0.25534603 4284448909
0.13934506 0.68439054 0.25595662 4284383630
0.14112899 0.68338275 0.25656721 4284383631
0.14265805 0.68251896 0.25709057 4284449426
0.12220284 0.69274253 0.25092426 4284375398
0.12380318 0.69223809 0.25122154 4288787902
0.14368109 0.68100852 0.25802517 4284515218
0.14512642 0.67988122 0.25871471 4284515475
0.14623319 0.67863429 0.25948316 4284384402
0.10954277 0.69749671 0.24809401 4284702552
