# .PCD v0.7 - Point Cloud Data file format
VERSION 0.7
FIELDS x y z rgb
SIZE 4 4 4 4
TYPE F F F U
COUNT 1 1 1 1
WIDTH 1089
HEIGHT 1
VIEWPOINT 0 0 0 1 0 0 0
POINTS 1089
DATA ascii
0.33753386 0.58560628 0.15536077 4291742412
0.33097902 0.59234154 0.15636821 4294901755
0.33168051 0.59129161 0.15657361 4294901755
0.33290908 0.59003347 0.15657079 4294901755
0.33419335 0.58822286 0.15620604 4294901755
0.33492407 0.58689511 0.15623052 4294572277
0.31530884 0.61347306 0.15323004 4290030512
0.32512945 0.5987739 0.15610559 4289901236
0.32606474 0.59737396 0.15637946 4289835444
0.32723388 0.59562409 0.15672179 4290098360
0.32816917 0.59422415 0.15699565 4290098360
0.32939416 0.59214878 0.15661052 4291348938
0.33047739 0.59066778 0.15692955 4294046192
0.33202925 0.58960807 0.15740082 4294901755
0.33276254 0.58756924 0.15686092 4294901242
0.33346537 0.58651727 0.15706672 4290887355
0.31442901 0.6130476 0.15406008 4289503908
0.31536427 0.61164767 0.15433389 4289570986
0.31653345 0.60989779 0.15467626 4289637295
0.31729287 0.60822254 0.15496635 4289637551
0.31830147 0.60657829 0.15527859 4289637807
0.31980699 0.60499805 0.15563478 4289703600
0.32074228 0.60359818 0.15590864 4289572013
0.32191136 0.60184824 0.15625092 4289506220
0.32285944 0.59948242 0.15577745 4289638063
0.32379654 0.5980798 0.15605184 4289901236
0.32473364 0.59667718 0.15632623 4289900979
0.32567075 0.59527457 0.15660062 4290032566
0.31296268 0.61233854 0.15544344 4294109675
0.3138828 0.61098713 0.15552893 4290425012
0.31478101 0.60904181 0.15575963 4289570731
0.31576779 0.60766309 0.15589136 4289505966
0.31670472 0.60578507 0.15579155 4289440429
0.31125286 0.61103582 0.15601143 4293247942
0.31195569 0.60998386 0.15621722 4294437868
0.31265852 0.6089319 0.15642302 4290423980
0.23188697 0.68403381 0.1627017 4294770683
0.23322956 0.68245333 0.16255851 4294770683
0.23418321 0.68111843 0.16260107 4294178033
0.23509331 0.67905921 0.1624079 4289044384
0.21618704 0.7049194 0.15973611 4288190618
0.21712235 0.70351952 0.16000997 4288453790
0.21829148 0.70176959 0.1603523 4288716705
0.21946059 0.70001972 0.16069463 4288782498
0.22016206 0.69896978 0.16090003 4288848291
0.22951505 0.68497056 0.16363864 4294770683
0.23054861 0.68369919 0.16323239 4294770683
0.232008 0.68187523 0.16330048 4294836219
0.2327466 0.68024415 0.16317375 4291019201
0.21276458 0.70736563 0.15995735 4288256156
0.21399462 0.70610642 0.15995428 4288059032
0.21487811 0.70407957 0.15975796 4287993239
0.21581519 0.70267695 0.16003235 4288190360
0.2169866 0.70092368 0.16037534 4288321688
0.21815796 0.69917041 0.16071834 4288519067
0.21909508 0.69776779 0.16099273 4288650911
0.22026645 0.69601452 0.16133571 4288979879
0.22185433 0.69469458 0.16248317 4290756291
0.22302341 0.69294465 0.16282545 4293322727
0.22419257 0.69119477 0.16316782 4294639612
0.22512788 0.68979484 0.16344169 4294639611
0.22629696 0.68804491 0.16378397 4294639611
0.22706044 0.68584549 0.16332504 4294705147
0.22776328 0.68479353 0.16353083 4294705147
0.20904551 0.70980096 0.16127048 4290492600
0.21054989 0.7087301 0.16070533 4288518556
0.21147487 0.70735937 0.16078867 4288123801
0.20699656 0.71112543 0.16175818 4294770424
0.20747633 0.70987332 0.16156091 4290558136
0.2043611 0.71216625 0.16279922 4294901753
0.20498963 0.71071064 0.16229796 4293651175
0.2061384 0.70959622 0.16192113 4288781730
0.20189998 0.71236533 0.16425389 4294901753
0.203255 0.71154046 0.16322839 4294770167
0.20040847 0.71229386 0.16491984 4294770424
0.19925287 0.71216077 0.16581137 4294375412
0.18142647 0.73487854 0.16333476 4294769912
0.18189412 0.7341786 0.16347168 4294901498
0.19545594 0.71387976 0.16744268 4294770683
0.19682191 0.71299678 0.16711755 4294705147
0.224684 0.67013228 0.17600088 4294901753
0.17657164 0.74040276 0.16300087 4287531148
0.17774074 0.73865283 0.16334315 4287926163
0.17890988 0.73690295 0.16368552 4287597198
0.17958185 0.73479784 0.16322637 4288122765
0.18075323 0.73304456 0.16356935 4290294192
0.18169034 0.73164195 0.16384374 4292992219
0.18302502 0.73001069 0.16445315 4294769655
0.18452168 0.72850347 0.1653287 4294770683
0.19364083 0.71485424 0.16799885 4294770683
0.19410773 0.71360576 0.16780759 4294770683
0.22380419 0.66970682 0.1768309 4294901753
0.16306135 0.75655907 0.16158278 4288649880
0.16376281 0.75550914 0.16178818 4290359728
0.16469811 0.75410926 0.16206203 4288978845
0.16650358 0.75240242 0.16196916 4288583570
0.16744877 0.75078458 0.16192535 4288780694
0.16838467 0.74938381 0.16219938 4289241762
0.17002057 0.74788505 0.16253282 4287729038
0.17118973 0.74613518 0.16287519 4288651163
0.17212501 0.74473524 0.16314906 4287664268
0.17295423 0.74275815 0.16295642 4287729805
0.17395525 0.74089199 0.16303185 4288386964
0.17512664 0.73913872 0.16337483 4287465351
0.17606373 0.73773605 0.16364922 4287136644
0.18379484 0.72616446 0.16591294 4293980142
0.18529044 0.72466177 0.16678627 4294770428
0.18664195 0.72320044 0.16727887 4294770684
0.18785068 0.72177839 0.16739111 4294770683
0.1877861 0.71943361 0.16774584 4294770683
0.18882979 0.71746451 0.16811371 4294770683
0.19014111 0.71645129 0.16835238 4294770683
0.19182275 0.71528178 0.16822724 4294770683
0.1598433 0.75963342 0.16172816 4290294960
0.16054475 0.75858355 0.16193356 4288387221
0.16171385 0.75683361 0.16227584 4288518807
0.16235265 0.754767 0.16181399 4288385938
0.16352402 0.75301373 0.16215698 4289571237
0.15486956 0.7641741 0.16208455 4288518807
0.15607831 0.76275206 0.16219679 4288782750
0.1570868 0.76106411 0.16215608 4288585371
0.15827619 0.75947744 0.16238348 4288124562
0.15954165 0.75760001 0.16229628 4290097839
0.16053404 0.75574338 0.16237123 4288387221
0.15100551 0.76647305 0.16312841 4288585368
0.15206672 0.76489437 0.16309758 4289440164
0.15398975 0.76374865 0.16291457 4288190097
0.1547626 0.76241189 0.16280581 4288124047
0.15602581 0.76053631 0.16271886 4289045919
0.15678164 0.75903225 0.16272549 4288716956
0.14772801 0.7690556 0.16361892 4289312693
0.1486633 0.76765567 0.16389279 4287993756
0.14968686 0.76613504 0.16373797 4288716703
0.15069409 0.76463705 0.16366902 4289308321
0.14304756 0.77373809 0.16369864 4289440936
0.14421667 0.77198815 0.16404097 4288651169
0.14515196 0.77058828 0.16431484 4289177511
0.14653693 0.76875347 0.16430318 4289046693
0.14750345 0.76708347 0.164323 4287860883
0.14836681 0.76579696 0.16434856 4288321178
0.14939202 0.76427382 0.16419424 4290294963
0.13590997 0.78093672 0.16378398 4278374331
0.13725704 0.77950698 0.16347677 4281326281
0.13813564 0.77811307 0.16354355 4285704101
0.13952395 0.77654952 0.16386859 4288784036
0.14051388 0.77482772 0.16419648 4288059284
0.14197791 0.77321833 0.16426191 4289177764
0.14276876 0.77127784 0.16407113 4288124054
0.14370587 0.76987517 0.16434553 4287795084
0.14440869 0.76882321 0.16455132 4288321687
0.13386102 0.78226119 0.16427168 4278504117
0.13440688 0.78068286 0.16401194 4278832825
0.13514885 0.77919167 0.16401945 4284073915
0.13122556 0.78330201 0.16531274 4285113757
0.13227631 0.7817409 0.1646065 4281582255
0.12965623 0.78255904 0.16588852 4287600020
0.13074921 0.78170365 0.16527393 4286354319
0.12731922 0.78372836 0.16755271 4287795344
0.1248804 0.7835052 0.16791448 4287596420
0.12598521 0.78340137 0.16816524 4287728777
0.12171173 0.7847566 0.16916615 4287861129
0.12308032 0.78387189 0.16884038 4288978070
0.11996537 0.78621149 0.1700494 4289111712
0.12036167 0.78503168 0.16986057 4288651419
0.11792926 0.78752267 0.17120826 4288519325
0.1183969 0.78682268 0.17134519 4288782497
0.11558097 0.78734398 0.17193159 4287466125
0.11283267 0.78876257 0.17370397 4285558898
0.1134962 0.78774303 0.17257252 4285689971
0.11009324 0.78934515 0.1737556 4282269250
0.11224613 0.78847891 0.17425732 4287794831
0.1075617 0.79084426 0.17578606 4281876032
0.109143 0.79021972 0.17516144 4281876288
0.10636219 0.79029441 0.17622776 4281744702
0.088907279 0.81470013 0.17286174 4281811520
0.089842573 0.81330019 0.17313561 4281811520
0.091011666 0.81155032 0.17347789 4281942593
0.10457352 0.79125148 0.17744893 4281350971
0.10504116 0.79055154 0.17758586 4281481787
0.0848094 0.81734908 0.17383714 4280955959
0.085967429 0.81596422 0.17395869 4281350970
0.086906359 0.81425065 0.17382939 4281483068
0.087972514 0.8121382 0.17405404 4281680191
0.089378729 0.81056178 0.17437574 4282008131
0.090490878 0.80902064 0.17494379 4281811265
0.091485694 0.80770469 0.17557447 4281416509
0.09229178 0.80614972 0.17602803 4281087545
0.10141093 0.7925005 0.1786982 4281942851
0.10207625 0.79136676 0.17844222 4281482555
0.082467176 0.81853169 0.17460147 4281021753
0.083415188 0.8162992 0.17449221 4280692784
0.084358618 0.81448025 0.174575 4280955955
0.087872759 0.80922043 0.17560397 4281810494
0.088575579 0.80816847 0.17580977 4281547326
0.089847818 0.80687445 0.17647246 4281284411
0.091118693 0.80558246 0.17713474 4281021752
0.099820837 0.79133695 0.17910245 4282073924
0.076791987 0.82412231 0.1747525 4282469198
0.077727295 0.82272238 0.17502637 4282534993
0.078899845 0.82055861 0.17517741 4281942856
0.080013923 0.81926757 0.17504495 4281416512
0.081129491 0.81797576 0.17491199 4280692788
0.081837177 0.81650859 0.17492644 4280560685
0.087928362 0.80739152 0.17670999 4281481274
0.088669568 0.8058942 0.17716919 4281152824
0.090063296 0.80446482 0.17797266 4280955702
0.091055289 0.80277354 0.17892891 4281284154
0.091990583 0.8013736 0.17920277 4281547326
0.097602375 0.79297405 0.18084595 4282008647
0.098890379 0.79220778 0.18049799 4282073670
0.069420584 0.83167094 0.17476939 4282668123
0.070528701 0.82997674 0.17444499 4282536024
0.071476102 0.82831919 0.1747376 4282667609
0.072857983 0.82672977 0.17511179 4282601815
0.073805407 0.82507229 0.17540443 4282601813
0.075209886 0.8238591 0.17559631 4282732884
0.076731451 0.82226545 0.17572673 4282403407
0.077799186 0.82025075 0.17571785 4281548096
0.079021886 0.81839484 0.17555511 4280561201
0.08815866 0.80471927 0.17823042 4281152822
0.088743679 0.80345571 0.17864388 4281152567
0.089839831 0.80223519 0.17937364 4281349947
0.09054669 0.80051738 0.18008833 4281744704
0.091845527 0.79880303 0.18090053 4281942338
0.092696078 0.79710567 0.18107894 4282008131
0.093481094 0.79538298 0.18118086 4282008134
0.095260166 0.79415673 0.18161032 4282008134
0.096522667 0.79263121 0.18130523 4281877061
0.067312188 0.83250362 0.17560223 4282996573
0.068422064 0.83121693 0.17546965 4282733915
0.069293499 0.82946461 0.17488605 4282602585
0.070464872 0.82771134 0.17522903 4282733658
0.071636245 0.82595807 0.17557202 4282733401
0.072573356 0.8245554 0.17584641 4282733399
0.073276177 0.82350349 0.1760522 4282799192
0.089206934 0.79965889 0.18071684 4281875776
0.091047354 0.79813921 0.18182696 4281942338
0.091649272 0.79662079 0.18171759 4281942338
0.092486806 0.79474968 0.18167722 4282008133
0.065497085 0.83347809 0.1761584 4283127385
0.066193826 0.83202165 0.17617315 4283061592
0.066652931 0.83050746 0.1759291 4282995799
0.062275056 0.83423531 0.17775279 4282864983
0.063436285 0.83303559 0.17708556 4282930261
0.064083032 0.83167726 0.17684756 4282995798
0.06139525 0.83380985 0.17858282 4282734168
0.061371785 0.8325932 0.17801522 4282864983
0.05875976 0.83485073 0.17962387 4282799960
0.059731562 0.83335781 0.1793955 4282734168
0.060196441 0.83202481 0.17912406 4282864983
0.05571609 0.83708328 0.18018284 4282733397
0.056054458 0.83576822 0.18033926 4282601811
0.056894697 0.83408499 0.18033968 4282799190
0.058112495 0.83258075 0.18030572 4282865239
0.059021074 0.83145648 0.1802329 4282864983
0.054446749 0.83481181 0.18107298 4282601815
0.055413634 0.8336556 0.18117447 4282799193
0.056849074 0.83179802 0.18141314 4282930776
0.053565234 0.83438557 0.18190461 4282601815
0.05403379 0.83368427 0.18204181 4282601815
0.42478055 0.50137001 0.15029465 4282336846
0.42570823 0.49956128 0.1501575 4282271053
0.42755315 0.49810603 0.15010609 4282468432
0.42734286 0.49669454 0.15022737 4282534225
0.42195985 0.5032599 0.1509245 4282074957
0.42266405 0.50220591 0.15113071 4282140493
0.42388386 0.50054067 0.15071654 4282140237
0.42483976 0.49916419 0.15073887 4282140237
0.42604741 0.49746525 0.15057734 4282468945
0.42675292 0.49640927 0.15078391 4282402639
0.41872934 0.50634611 0.15107045 4282336332
0.41897017 0.50511885 0.15123472 4282402382
0.42033932 0.50308824 0.15072919 4282205773
0.42128006 0.5016802 0.15100466 4282205773
0.422456 0.49992019 0.15134901 4282337102
0.41344205 0.51076192 0.15170595 4282074186
0.41435882 0.50896221 0.15157017 4282205773
0.41574219 0.50733227 0.15147658 4282336846
0.41644728 0.50627697 0.15168303 4282271052
0.40398929 0.52199537 0.15075786 4282600016
0.4051629 0.52023876 0.15110151 4282402379
0.40630668 0.51809651 0.15103394 4282468430
0.40721717 0.51630354 0.15089805 4282600016
0.40868589 0.51532108 0.15137434 4282271051
0.40968487 0.51342058 0.15165146 4282139979
0.41115046 0.51244283 0.15212682 4282139465
0.41204032 0.51025271 0.15158102 4282139465
0.41274583 0.5091967 0.15178761 4282140235
0.40069911 0.52458793 0.15125027 4282205517
0.40150908 0.52192652 0.15104993 4282336846
0.4027667 0.52091593 0.1513214 4282402637
0.40389782 0.519472 0.15162493 4282402637
0.40479329 0.51773882 0.15178087 4282402894
0.40662724 0.51601827 0.15145461 4282469202
0.40756795 0.51461029 0.15173006 4282140237
0.40874383 0.51285022 0.15207437 4282140235
0.39611596 0.52794975 0.15209198 4282206028
0.39682016 0.52689576 0.15229817 4282140235
0.3980082 0.52521569 0.15213743 4282206028
0.39975139 0.52402622 0.15167208 4282205771
0.40038902 0.52185059 0.15181589 4282336844
0.39499804 0.52787399 0.15285647 4282337614
0.39566141 0.52644295 0.15265313 4282271821
0.39713159 0.52482659 0.15271896 4282271821
0.39049956 0.52964318 0.15329595 4282074442
0.39236882 0.52903748 0.15314586 4282074442
0.39326587 0.52725506 0.15301201 4282337614
0.38636085 0.53438866 0.15433086 4282338127
0.38696787 0.53259271 0.15372044 4282272334
0.38901997 0.5316304 0.15407839 4282140492
0.38990963 0.52935791 0.15385251 4282140235
0.3846719 0.5342769 0.15414211 4282140748
0.3802934 0.53781915 0.15518722 4282533966
0.38127267 0.53674203 0.15523134 4282336844
0.38289902 0.53562504 0.1551089 4282271821
0.36346102 0.56050211 0.15272088 4283255888
0.36439994 0.55909681 0.15299581 4283913555
0.36557359 0.55734015 0.15333946 4289242269
0.36627775 0.55628616 0.15354565 4293255388
0.37566686 0.54223293 0.15629484 4282336842
0.37637103 0.54117888 0.15650102 4282468428
0.37784156 0.53969347 0.15581381 4282533966
0.37907532 0.5384298 0.15581113 4282599502
0.35359851 0.57293195 0.15128885 4289375662
0.35453743 0.57152665 0.15156378 4289507248
0.35547635 0.57012129 0.1518387 4289507248
0.35664994 0.56836462 0.15218234 4289573041
0.35782358 0.56660795 0.15252599 4288850090
0.3587625 0.56520265 0.15280092 4289112490
0.35993612 0.56344599 0.15314457 4288520096
0.36110976 0.56168932 0.15348822 4283057996
0.36222634 0.55980176 0.15305546 4282663238
0.36342436 0.55856162 0.153419 4282663750
0.3644059 0.5566777 0.15369685 4282663232
0.36545289 0.5555774 0.15451728 4283911248
0.36627379 0.55396003 0.15500027 4282532161
0.37355033 0.54306877 0.1571309 4282206028
0.37448859 0.54175061 0.15690449 4282140235
0.37578222 0.54089421 0.15705651 4282271821
0.34938723 0.57534295 0.15147895 4289178283
0.35063428 0.57399642 0.15185495 4289046697
0.35214391 0.57264501 0.15186432 4289178283
0.35335702 0.57088053 0.15191913 4289375662
0.35451302 0.56935811 0.15226212 4289441455
0.3556684 0.56783658 0.15260491 4289441455
0.35664701 0.56595618 0.15288247 4288849576
0.35780239 0.56443471 0.15322526 4288915112
0.35895711 0.56291413 0.15356782 4287796373
0.35993698 0.56103188 0.15384579 4282597447
0.36131346 0.55930865 0.15350159 4282202433
0.36225417 0.55790061 0.15377703 4282071617
0.36328819 0.55588567 0.15437151 4281741622
0.36426526 0.55450225 0.15541352 4282530108
0.36513877 0.55337721 0.15582389 4281544755
0.37060529 0.54410458 0.15770261 4282534224
0.37209952 0.54329693 0.15791924 4282271308
0.37315205 0.54150289 0.15746915 4282206027
0.34525573 0.57958895 0.1524855 4288980904
0.34587201 0.57820714 0.15228166 4289112490
0.34742948 0.57719511 0.15213794 4289244076
0.34849024 0.57499719 0.15193474 4289244076
0.34966612 0.57323712 0.15227905 4289112490
0.35037169 0.57218111 0.15248564 4289046697
0.36277634 0.55303013 0.15648246 4281215788
0.36408487 0.55208224 0.15707354 4281216305
0.36506233 0.55081767 0.1577391 4281742908
0.365677 0.54902315 0.158465 4282599248
0.36685064 0.54726648 0.15880866 4282534738
0.36854991 0.5453679 0.15856811 4282468687
0.36936891 0.54420441 0.15843348 4282600015
0.3431989 0.58091855 0.15297508 4289308330
0.34395808 0.5788601 0.15243092 4289243050
0.34489879 0.57745206 0.15270637 4289440685
0.36253721 0.55105156 0.15787102 4281414196
0.36347792 0.54964358 0.15814652 4281941829
0.3646538 0.54788351 0.15849078 4282533968
0.36535934 0.5468275 0.15869737 4282665811
0.34025577 0.58209866 0.15367922 4289571244
0.3411431 0.5803864 0.15328406 4289177256
0.34207267 0.57934558 0.15333745 4289111464
0.33720341 0.58406228 0.15485904 4289505452
0.33807418 0.58271974 0.15424378 4289702576
0.3384214 0.58130586 0.15445621 4289243049
0.33432302 0.58545846 0.15583538 4290162868
0.33522296 0.58422494 0.15535694 4289637037
0.33633071 0.58239067 0.15512031 4289373867
0.3290621 0.58888906 0.15572686 4290295739
0.33040023 0.587942 0.1561306 4293848810
0.33187041 0.58632559 0.15619643 4293255646
0.33305097 0.58479005 0.15617394 4289636522
0.33394504 0.58333284 0.15606268 4289571501
0.33494556 0.58241946 0.15599099 4289308842
0.31799951 0.60406071 0.15469521 4289769393
0.31917313 0.60230404 0.15503886 4289572014
0.3203468 0.60054743 0.15538251 4289506478
0.32117409 0.59883404 0.15525025 4289703857
0.32200274 0.59711868 0.15511842 4289967029
0.32317865 0.59535867 0.15546273 4289769650
0.32435453 0.5935986 0.15580703 4289769393
0.32629538 0.59271806 0.15611818 4289900981
0.32744202 0.59113669 0.15643676 4289966774
0.32849509 0.58959007 0.15654776 4290493116
0.32917768 0.58754778 0.15649 4290756286
0.31517881 0.60595059 0.15532507 4289374637
0.31588298 0.60489661 0.15553126 4289440429
0.31700018 0.60333014 0.15512133 4289637807
0.31816277 0.60180211 0.15546358 4289703600
0.31925064 0.60031521 0.15578336 4289703600
0.32058471 0.59854907 0.15580626 4289901236
0.32141283 0.59683341 0.15567498 4289901236
0.32258871 0.5950734 0.15601929 4289835443
0.32376462 0.59331334 0.15636359 4289703857
0.3247053 0.59190536 0.15663904 4289900979
0.32541087 0.59084928 0.15684563 4290229944
0.31251234 0.6072892 0.15575279 4290226086
0.31321698 0.60623455 0.15595911 4289570470
0.31452885 0.60421646 0.15548258 4289374635
0.31083041 0.60896111 0.1562355 4293842390
0.31153458 0.60790712 0.1564417 4294963439
0.23364489 0.67901456 0.1620229 4288452761
0.23011999 0.68195844 0.16244659 4294770683
0.23082419 0.68090445 0.16265278 4294704119
0.23176311 0.67949909 0.1629277 4289176483
0.23256443 0.67835605 0.16245608 4289044387
0.21239212 0.7049948 0.15943941 4287927190
0.21313494 0.70282292 0.15897654 4287861394
0.21431082 0.70106292 0.15932086 4287861137
0.21548674 0.69930285 0.15966517 4288123796
0.21642743 0.69789487 0.15994062 4288190102
0.21736817 0.69648683 0.16021606 4288256153
0.21854405 0.69472677 0.16056037 4288650912
0.21971996 0.69296676 0.16090468 4288716964
0.22066066 0.69155872 0.16118012 4289111722
0.22183657 0.68979871 0.16152444 4290559425
0.22301245 0.68803865 0.16186875 4294572796
0.22395317 0.68663061 0.1621442 4294835964
0.22489388 0.68522263 0.16241965 4294770683
0.22782843 0.68363935 0.16286744 4294705147
0.22813059 0.68213046 0.16227344 4294705147
0.22883612 0.68107444 0.16248001 4294836219
0.20933671 0.70723599 0.16000055 4288320925
0.2098223 0.7059769 0.15980393 4287991959
0.21180332 0.70471007 0.1599949 4287861395
0.21254502 0.70253766 0.1595331 4287795601
0.2137209 0.70077765 0.1598774 4287663758
0.2148968 0.69901764 0.16022171 4287860624
0.21583751 0.6976096 0.16049717 4287926930
0.21677823 0.69620156 0.16077262 4288124566
0.21795411 0.6944415 0.16111693 4288387738
0.21913002 0.69268149 0.16146123 4288650910
0.22007073 0.69127345 0.16173668 4289045925
0.2212466 0.68951344 0.16208099 4289045926
0.22242251 0.68775338 0.16242531 4289966519
0.22336322 0.68634534 0.16270076 4293913840
0.22430395 0.68493736 0.16297621 4294835964
0.20707212 0.70780861 0.15975383 4288452254
0.20754248 0.70710462 0.15989156 4288320669
0.20412639 0.70871288 0.16107918 4288650658
0.20571685 0.70808476 0.16045094 4288715937
0.20169415 0.71051294 0.16285801 4292796122
0.20298712 0.70974368 0.16250871 4288452511
0.20058295 0.7098847 0.16329199 4289637550
0.19761956 0.71080714 0.16484107 4291743697
0.19947067 0.70925593 0.16372707 4287268237
0.19546227 0.71113038 0.16579954 4293256677
0.1964803 0.7105667 0.16572204 4289769396
0.19387421 0.71120703 0.1660995 4293651434
0.1676348 0.74749941 0.16161993 4287860626
0.16833898 0.74644542 0.16182612 4289044898
0.16927791 0.74504006 0.16210103 4288716956
0.17045154 0.74328345 0.16244468 4287335049
0.1711137 0.74118519 0.16198759 4287269510
0.1722896 0.73942518 0.16233189 4287334533
0.17346548 0.73766518 0.16267622 4288649108
0.17602929 0.73668391 0.16298606 4286807935
0.17673348 0.73562992 0.16319224 4287334022
0.17774096 0.73375404 0.16326956 4288057229
0.17858361 0.73175693 0.1630809 4287991694
0.17975953 0.72999692 0.16342525 4287991694
0.1809354 0.72823685 0.16376951 4289372578
0.18236694 0.72719795 0.16484176 4291873739
0.18240227 0.72428888 0.16529296 4289898928
0.18334298 0.72288084 0.16556841 4293978862
0.18504442 0.72183001 0.16647495 4294835963
0.18600322 0.72058928 0.16663438 4294770683
0.18952411 0.71531928 0.16766533 4294770683
0.19035567 0.71398205 0.16742977 4294770683
0.19228515 0.71293575 0.16738194 4294770683
0.219979 0.66915256 0.17694668 4294901753
0.16416959 0.75093699 0.16169713 4288254864
0.1651085 0.74953163 0.16197205 4288978330
0.16610852 0.74766469 0.16204858 4288057747
0.16693629 0.7456854 0.16185835 4287465866
0.167877 0.74427736 0.1621338 4288058003
0.18598577 0.71717286 0.16743618 4294770683
0.1866913 0.71611685 0.16764277 4294705147
0.21909577 0.66872549 0.17777991 4294901754
0.15729885 0.75830579 0.16150506 4288255120
0.15823776 0.75690049 0.16177998 4289570981
0.1594114 0.75514382 0.16212364 4288189329
0.16040705 0.75345033 0.16173679 4289242017
0.16175893 0.75188327 0.16211611 4288453015
0.16275889 0.75018561 0.16172911 4287663243
0.16393478 0.74842554 0.16207343 4288123793
0.16487549 0.74701756 0.16234888 4288979105
0.21821256 0.66829836 0.17861314 4294901755
0.15201151 0.7627216 0.16214058 4289176222
0.15329596 0.76081634 0.16196904 4289703079
0.15438087 0.75919688 0.16214982 4287860362
0.15570235 0.75769055 0.16210812 4288780950
0.15729171 0.75623584 0.16226497 4289307808
0.15836886 0.75477606 0.16257471 4287991950
0.15946238 0.75278312 0.16222247 4288123282
0.16063829 0.75102311 0.16256678 4289308063
0.15012972 0.76320618 0.16304536 4288453266
0.15087968 0.76187372 0.16259077 4288386189
0.15223129 0.76047665 0.16250633 4290426031
0.15322417 0.75861549 0.16258375 4288387218
0.15392971 0.75755942 0.16279034 4288255374
0.14777847 0.76439339 0.16381268 4288321177
0.14880688 0.76286554 0.16365932 4288847771
0.14992769 0.761213 0.16307712 4288584593
0.13967441 0.77302516 0.16362344 4287532686
0.14037859 0.77197117 0.16382962 4289572269
0.1413175 0.77056587 0.16410455 4289111718
0.14249115 0.7688092 0.1644482 4288322200
0.14406519 0.76723975 0.16397074 4288781984
0.14512737 0.76555127 0.16383207 4289045414
0.14610104 0.76401991 0.16377988 4288321175
0.1352703 0.77786803 0.16342573 4285049252
0.13620919 0.77646273 0.16370064 4288325030
0.13714811 0.77505738 0.16397557 4288783011
0.13813022 0.77320683 0.16405338 4287993236
0.13892213 0.77126026 0.16386572 4287664015
0.14009805 0.76950026 0.16421008 4288651165
0.131451 0.78066957 0.16412714 4283548081
0.13250843 0.77948171 0.16374291 4281452725
0.13376363 0.7776106 0.16365826 4285440413
0.13474472 0.77576041 0.16373648 4287665045
0.13592061 0.77400041 0.1640808 4288650395
0.13686131 0.77259237 0.16435625 4290164400
0.1292748 0.78101176 0.16530967 4289506734
0.12987903 0.77992171 0.16470781 4287010710
0.13097787 0.77906197 0.16409211 4285770148
0.12633035 0.78192449 0.16595784 4289505449
0.12747711 0.78108311 0.16574734 4288715676
0.12536603 0.78161782 0.16654432 4287794313
0.12614673 0.78045171 0.16632399 4289242530
0.1223387 0.78264666 0.16739686 4288780948
0.12326082 0.78185058 0.16730221 4288517263
0.11960956 0.78381085 0.16842099 4287795853
0.11763391 0.78560913 0.16990797 4289308838
0.11504437 0.78578043 0.17056771 4288123537
0.11142216 0.78730345 0.17149335 4287401102
0.11242267 0.78639007 0.17142166 4288123796
0.10996857 0.78753203 0.17228322 4286347385
0.11130258 0.78631419 0.17218763 4289637288
0.1067569 0.78964621 0.174366 4281941825
0.10770633 0.78859258 0.17351992 4282335300
0.10555442 0.78909403 0.17481102 4282072126
0.10602433 0.7883907 0.17494862 4282795850
0.10358553 0.78910279 0.17539772 4281481787
0.10240449 0.79033059 0.17673105 4281219383
0.10287394 0.78962797 0.17686851 4281283893
0.084851652 0.81252193 0.17413908 4281417019
0.08602529 0.81076527 0.17448273 4281942336
0.086729474 0.80971128 0.17468892 4281942080
0.099224754 0.78978848 0.17776734 4281679162
0.080093466 0.81672877 0.17456558 4280560685
0.081218898 0.81501436 0.17424279 4280560684
0.082290567 0.81340474 0.17442583 4281152564
0.083523594 0.81153703 0.17426386 4281876543
0.084464312 0.81012899 0.17453931 4282139202
0.08532729 0.80838114 0.17534523 4282007360
0.086862102 0.80698639 0.17630486 4281415994
0.087604731 0.8054862 0.17676494 4281087799
0.096993819 0.79143298 0.17951412 4282008647
0.098286808 0.79066366 0.17916483 4282008131
0.073867217 0.82254994 0.17492618 4282535762
0.075040862 0.82079327 0.17526983 4281679682
0.076257505 0.81895006 0.17519258 4280889905
0.077232137 0.81747389 0.17513087 4280494634
0.07908728 0.81611019 0.17506041 4280428842
0.079991929 0.81448656 0.17468835 4280626220
0.080932632 0.81307852 0.1749638 4281678652
0.084318407 0.80754352 0.1762469 4282073666
0.085679002 0.80600429 0.17700589 4281284665
0.086226761 0.80449039 0.17773382 4281152568
0.086680532 0.80293834 0.17805368 4281218104
0.087950863 0.80147004 0.17904997 4281546813
0.093598984 0.79260528 0.18051292 4281877061
0.095417514 0.79102862 0.17988306 4281877061
0.067760333 0.82935846 0.17459382 4282668378
0.06846451 0.82830447 0.17480001 4282668378
0.069403417 0.82689911 0.17507493 4282864987
0.070577063 0.8251425 0.17541859 4282799192
0.071047164 0.82320166 0.17498644 4282799192
0.072645202 0.82177109 0.17539112 4282206797
0.074030802 0.82017779 0.1757652 4280890421
0.074886732 0.81864518 0.17581488 4280364072
0.075870328 0.81715077 0.1756694 4280297509
0.084807105 0.80377454 0.17828615 4281086519
0.08578635 0.80191946 0.17881598 4281283642
0.087133832 0.80063462 0.17976014 4281612606
0.0881816 0.79879266 0.18057331 4281810498
0.089120515 0.7973873 0.18084824 4281942338
0.090294145 0.79563063 0.18119189 4281942083
0.091135196 0.79375321 0.18115324 4281876545
0.0930098 0.79232037 0.18106876 4281745729
0.066285931 0.82919592 0.17497008 4282996056
0.066869751 0.82770187 0.1748572 4282996056
0.068045683 0.82594186 0.17520155 4282930520
0.069221534 0.8241818 0.17554583 4282996314
0.085919224 0.79918933 0.18043502 4281678914
0.086624764 0.79813325 0.18064161 4281744706
0.087800689 0.79637325 0.18098597 4281876547
0.088976555 0.79461324 0.18133023 4281745218
0.08968208 0.79355723 0.18153681 4281745218
0.063473567 0.83014482 0.17631623 4282930005
0.064637266 0.82932931 0.17594454 4282995797
0.061351091 0.83137244 0.17744847 4282864983
0.062044181 0.82950056 0.17727764 4282864469
0.060173463 0.83080298 0.17855944 4282864983
0.060623586 0.8288731 0.17813337 4282799190
0.057408452 0.83086044 0.18029745 4283061848
0.05899585 0.83023351 0.17967041 4282799190
0.059473578 0.82854986 0.17907287 4282930776
0.054587755 0.83275032 0.18092732 4282799194
0.055842616 0.83084649 0.18097523 4282930776
0.056792963 0.8293494 0.18029356 4282930519
0.057793442 0.82843602 0.18022183 4282996310
0.051730614 0.83342171 0.18099912 4282733401
0.053343486 0.83198327 0.18139918 4282798936
0.054927755 0.83065182 0.18157184 4282864985
0.055613052 0.82877886 0.18140663 4282930777
0.42366493 0.49784774 0.15052496 4282402639
0.42486784 0.49674955 0.15043877 4282403152
0.42557421 0.49481544 0.15029819 4282468175
0.41894835 0.50256634 0.15060531 4282468431
0.4201265 0.50080287 0.15095027 4282336846
0.42130464 0.4990395 0.15129524 4282468430
0.4225131 0.4973371 0.15113534 4282534223
0.42347142 0.49595585 0.15115905 4282533967
0.42442253 0.49430311 0.15090956 4282599503
0.41594532 0.50443405 0.15091856 4282336844
0.41665262 0.50337535 0.15112567 4282468430
0.417705 0.50146484 0.15074845 4282468430
0.41896868 0.49992532 0.15089883 4282271052
0.41991299 0.49851188 0.15117534 4282600017
0.40992653 0.51080257 0.15125176 4282205515
0.41086903 0.50939184 0.15152773 4282074184
0.41227162 0.50764364 0.15171923 4282271564
0.41325378 0.50583327 0.15132448 4282468430
0.41396159 0.50477386 0.15153173 4282402638
0.40520993 0.51552117 0.1513321 4282337614
0.40638807 0.51375777 0.15167707 4282140237
0.40756622 0.51199436 0.15202203 4282008651
0.40850872 0.51058364 0.15229802 4282008651
0.40942448 0.50877988 0.15216541 4282074444
0.41034168 0.5069741 0.15203325 4282140238
0.39854836 0.52256566 0.15120828 4282206028
0.39949089 0.52115494 0.15148425 4282205771
0.40070897 0.51972193 0.15159735 4282336844
0.40152138 0.51778424 0.15151884 4282336844
0.40248835 0.51586759 0.1518553 4282205771
0.40368858 0.51429009 0.15218186 4282206028
0.40482378 0.51284128 0.15248582 4282140235
0.40547734 0.51132298 0.15243916 4282074186
0.40709254 0.51007819 0.15218002 4282008651
0.39441887 0.52523506 0.15219121 4282337614
0.3956368 0.52377778 0.15198405 4282140233
0.39710796 0.5221296 0.1520211 4282534991
0.39823991 0.52039427 0.15195636 4282337613
0.39951009 0.5189324 0.15218832 4282271306
0.39111602 0.52783757 0.15268551 4282074442
0.39205858 0.52642685 0.15296149 4282271821
0.39348975 0.52442849 0.1526197 4282469199
0.39443964 0.52305537 0.15264377 4282337612
0.39563259 0.52136725 0.15248494 4282469198
0.39634082 0.52030718 0.15269232 4282403405
0.38804886 0.53008741 0.1532488 4282207055
0.38875574 0.52902937 0.15345578 4282009419
0.38994342 0.52734607 0.15329726 4282074699
0.39110082 0.52586669 0.15338875 4282140235
0.39212602 0.52387929 0.15316641 4282469200
0.39326778 0.52256131 0.15325668 4282271819
0.38368368 0.53310949 0.15416273 4282206028
0.38518348 0.53173709 0.15360984 4282272334
0.38621089 0.53055269 0.15386911 4282141262
0.38753781 0.52820587 0.15340914 4282141005
0.38848212 0.52679241 0.15368564 4282140748
0.3813833 0.53479683 0.15458521 4282336588
0.38198388 0.53300053 0.1539792 4282402637
0.37707809 0.53831452 0.15515134 4282599501
0.37825823 0.53663719 0.15499386 4282598988
0.37955418 0.53577888 0.15514566 4282336329
0.38015124 0.53398436 0.15454073 4282270536
0.3746579 0.5390107 0.15626942 4282271821
0.37586626 0.53762555 0.15568778 4282337101
0.37737212 0.53625119 0.15557963 4282598731
0.35126659 0.57109565 0.15124702 4289309869
0.3519735 0.5700376 0.151454 4289178283
0.35315165 0.56827414 0.15179898 4289178283
0.35432976 0.56651074 0.15214394 4289178282
0.35527229 0.56510001 0.15241991 4289046695
0.35645047 0.56333661 0.15276489 4288980902
0.35755223 0.56123036 0.1527018 4285691256
0.35841975 0.55947477 0.15257014 4282400327
0.35997003 0.55819678 0.15304439 4282005052
0.36096334 0.55668437 0.15348546 4281742136
0.36198846 0.55543774 0.15414289 4281347377
0.36281249 0.55381417 0.15462773 4282070584
0.37082392 0.54182297 0.15697353 4282402635
0.37200007 0.5401479 0.15681723 4282337098
0.37294197 0.53882432 0.15659186 4282205769
0.3738851 0.53749961 0.15636641 4282140235
0.34749252 0.57440352 0.15160333 4289572271
0.34867066 0.57264006 0.1519483 4289178026
0.35012439 0.57085437 0.1521304 4289046696
0.35108688 0.56960887 0.15229043 4289046695
0.35226503 0.56784546 0.15263541 4289046695
0.35340285 0.56591272 0.15277644 4289046695
0.35430571 0.56433165 0.15284863 4289046694
0.35555413 0.56298536 0.15322368 4288915108
0.35696059 0.56094426 0.15325996 4282927698
0.35782754 0.55918843 0.15312885 4281808190
0.35877186 0.55777496 0.15340534 4281676854
0.36000144 0.55624008 0.15402202 4281346860
0.36072356 0.55470043 0.15487775 4281544494
0.36192587 0.55338544 0.15546417 4281544752
0.36893487 0.5423094 0.15788181 4282600014
0.3699373 0.54139423 0.15780997 4282402635
0.37111193 0.53976303 0.15740357 4282336842
0.37175635 0.53834027 0.1572073 4282336842
0.3456634 0.57538551 0.15216379 4289506477
0.3466059 0.57397479 0.15243976 4289572269
0.34778404 0.57221138 0.15278473 4289440683
0.34860951 0.57008207 0.15313697 4289178025
0.34955263 0.56867045 0.15341312 4289309611
0.35038498 0.56680989 0.15314588 4289309610
0.35186148 0.56518632 0.15321217 4289177511
0.35988826 0.55317217 0.15556246 4281282346
0.36066151 0.55226648 0.15663825 4280953639
0.36192188 0.55105042 0.15692438 4281019694
0.36569196 0.54540753 0.15802829 4282534482
0.3662411 0.54404926 0.1582554 4282534224
0.36700037 0.54255533 0.15852195 4282599759
0.36791503 0.54115796 0.15791276 4282599759
0.34053144 0.57897002 0.15321855 4289111720
0.34179947 0.57795 0.15304181 4289045671
0.34300756 0.57643437 0.15321288 4288979877
0.34418574 0.57467097 0.15355784 4289308842
0.34506878 0.57303917 0.15356253 4289638065
0.34627724 0.57145423 0.15388849 4289572528
0.34681496 0.56910425 0.15400399 4289836469
0.34798014 0.56767297 0.15414995 4289376432
0.34920058 0.56623721 0.15426327 4289573809
0.35931405 0.55116224 0.15776071 4281019952
0.36067984 0.5499832 0.15838744 4281875777
0.36162236 0.54857248 0.15866342 4282271050
0.36275029 0.54705143 0.15888929 4282468430
0.36356947 0.54503882 0.15872537 4282599760
0.36426625 0.54363799 0.15897389 4282599503
0.33870232 0.57995206 0.153779 4289309099
0.33940923 0.57889402 0.15398599 4289111720
0.34035176 0.57748324 0.15426196 4289111720
0.34152991 0.57571983 0.15460694 4288651169
0.34252626 0.57329518 0.15413922 4288848290
0.3434706 0.57188177 0.15441573 4289177255
0.34441492 0.57046831 0.15469223 4289572270
0.34512317 0.56940824 0.15489961 4289901235
0.35857981 0.54926682 0.15883981 4282139207
0.35976022 0.54750001 0.15918544 4282271307
0.36094064 0.54573327 0.15953107 4282468687
0.33581084 0.5813536 0.15475909 4289505451
0.33708405 0.57991612 0.15483962 4289242793
0.33802044 0.5779044 0.15495783 4289111976
0.33874759 0.57633132 0.15511547 4288980648
0.33962926 0.5746994 0.15512118 4288783525
0.34080967 0.57293266 0.15546682 4288848546
0.34258226 0.5714522 0.15525377 4289045925
0.34329054 0.57039213 0.15546115 4289243304
0.3305032 0.5857864 0.15539706 4294111978
0.33168134 0.584023 0.15574203 4289834412
0.33285949 0.5822596 0.156087 4289637550
0.33428234 0.58087724 0.15576872 4289243307
0.33546472 0.57942766 0.15579994 4289177513
0.33651629 0.57754177 0.15567948 4289045927
0.33750051 0.57554013 0.15596206 4289111720
0.33844486 0.57412672 0.15623857 4288782755
0.32625785 0.58979964 0.15561537 4289966772
0.32720038 0.58838892 0.15589136 4290229944
0.32837853 0.58662552 0.15623632 4292137939
0.32961658 0.58535767 0.15623349 4294835703
0.33067736 0.58350694 0.15617141 4292664537
0.33165038 0.58162642 0.15645266 4290427066
0.3331112 0.5802384 0.15651618 4289243051
0.33395532 0.57850099 0.15638818 4289243307
0.31806785 0.59865338 0.15467162 4289637806
0.31899872 0.59747285 0.1549456 4289769392
0.32059875 0.59592897 0.15541974 4289966772
0.32154125 0.59451824 0.15569571 4289966772
0.3227194 0.59275484 0.15604068 4289769393
0.32389757 0.59099144 0.15638566 4289900979
0.32511565 0.58955842 0.15649876 4290229944
0.32623589 0.58800292 0.1564827 4290229944
0.32715008 0.58623111 0.15659957 4294046192
0.32872999 0.58492893 0.15706992 4294901755
0.32946575 0.58287531 0.1565378 4294705146
0.33064616 0.58110845 0.15688343 4294309876
0.3131704 0.60353589 0.15543675 4289506219
0.31497881 0.60183942 0.15511191 4289572013
0.31588241 0.60032666 0.1552528 4289703599
0.31710196 0.59889227 0.15536585 4289703599
0.31777373 0.59685725 0.15531057 4289703598
0.31039876 0.60592866 0.15572123 4294238947
0.31134129 0.60451794 0.1559972 4290686383
0.31204376 0.60250175 0.15546302 4289833644
0.31275198 0.60144168 0.1556704 4289768621
0.22943786 0.67970234 0.16160838 4293321955
0.23038037 0.67829162 0.16188437 4289044641
0.23159848 0.6768586 0.16199747 4288519067
0.23232533 0.67596573 0.16208851 4288190359
0.22519252 0.68371558 0.16182671 4294770683
0.22589943 0.68265754 0.16203369 4294770683
0.22684194 0.68124682 0.16230968 4294770683
0.22810987 0.67918116 0.16198039 4291216579
0.22929414 0.67763162 0.16232213 4288715677
0.23032363 0.67646253 0.16261518 4288321174
0.23143871 0.67553705 0.16292495 4288189842
0.20987259 0.70430493 0.1588023 4287926421
0.21057948 0.70324683 0.15900929 4287861394
0.211522 0.70183611 0.15928526 4287729808
0.21270014 0.70007271 0.15963024 4287400843
0.21387827 0.6983093 0.1599752 4287532429
0.21482083 0.69689858 0.16025119 4287664015
0.21599896 0.69513518 0.16059615 4287861394
0.21696618 0.69315517 0.16054057 4287992980
0.21790919 0.69174373 0.16081667 4288387991
0.21906213 0.69055027 0.16149308 4288585370
0.21982393 0.68834561 0.16103855 4288848545
0.22100434 0.68657881 0.16138418 4289308333
0.22194867 0.68516535 0.16166069 4289768627
0.22349714 0.68340635 0.16210082 4293651435
0.22489667 0.68224287 0.16248846 4294770683
0.22625086 0.68096101 0.16286729 4294770683
0.2270264 0.67873794 0.1624154 4289768365
0.22820681 0.67697114 0.16276103 4288386712
0.22891505 0.67591107 0.16296841 4288255382
0.20574306 0.70697427 0.15978524 4287992987
0.20690049 0.70585197 0.15940778 4287861397
0.20812391 0.70445973 0.159492 4287795602
0.20947479 0.70261061 0.15944411 4287795344
0.21020059 0.70099032 0.15931891 4287663502
0.21090885 0.69993025 0.15952629 4287400330
0.20462081 0.70689827 0.16055268 4287730329
0.20534132 0.70528251 0.16042799 4287533202
0.2058271 0.70401818 0.1602346 4287467663
0.20229569 0.70792037 0.16140631 4287861145
0.20349857 0.70682222 0.16132012 4287795610
0.20110834 0.70776618 0.16226429 4287532437
0.19712459 0.7093395 0.16383792 4286677127
0.19789736 0.70822239 0.16336843 4287071117
0.19919656 0.70744944 0.16301747 4287269264
0.19600649 0.7087093 0.16427758 4287071117
0.19677995 0.70759118 0.16380833 4286808458
0.22363098 0.66849524 0.17232989 4294901753
0.19411333 0.70974988 0.16551363 4287597966
0.19458458 0.70904452 0.16565162 4286939785
0.17390105 0.73590612 0.16215277 4287136641
0.1750792 0.73414266 0.16249773 4287267970
0.17625734 0.73237926 0.16284271 4287004797
0.17719987 0.73096853 0.16311868 4287070846
0.17821221 0.72908431 0.16319811 4287399812
0.17955618 0.72744173 0.16380863 4287728525
0.18049869 0.72603101 0.1640846 4287662734
0.18120559 0.72497296 0.16429159 4287530380
0.1899838 0.71241927 0.16649656 4294770683
0.19072612 0.71121693 0.16623403 4294572792
0.19251983 0.71037924 0.16614309 4290822080
0.16806622 0.74288368 0.16154033 4288452759
0.1687731 0.74182564 0.16174731 4288123794
0.16971563 0.74041492 0.16202328 4287663498
0.17089377 0.73865151 0.16236825 4287466119
0.17156327 0.73653895 0.16191541 4287793799
0.1725076 0.73512554 0.16219191 4287464834
0.17345192 0.73371208 0.16246842 4287531397
0.18053436 0.72311133 0.1645422 4287926163
0.18147869 0.72169793 0.1648187 4287794064
0.1826667 0.7204749 0.165491 4289702572
0.18408906 0.71890128 0.16623193 4293124061
0.18503158 0.71749055 0.1665079 4294770426
0.18738787 0.71396375 0.16719785 4294705147
0.1883277 0.71200174 0.16714858 4294705147
0.18879722 0.71074384 0.16696163 4294639610
0.1616403 0.7495755 0.16148551 4287597446
0.16281845 0.74781209 0.16183047 4287728775
0.16427216 0.7460264 0.16201256 4288650394
0.16510417 0.74469709 0.16197303 4288781979
0.16653568 0.74304754 0.16197263 4287531401
0.16736983 0.74105644 0.16178568 4288453271
0.16831414 0.73964298 0.16206217 4287269255
0.15468322 0.75647706 0.1616405 4288122764
0.15562573 0.75506634 0.16191648 4289372833
0.15684383 0.75363332 0.16202958 4288715673
0.15795276 0.7519815 0.16212563 4288320914
0.15895317 0.75010979 0.16220482 4288123276
0.16033144 0.7487126 0.16228862 4289175959
0.16187391 0.74713886 0.16231984 4287991944
0.16295433 0.74567449 0.1626303 4289044636
0.16408654 0.74418437 0.16261046 4288321428
0.15114477 0.75943226 0.1620658 4288452494
0.15208729 0.75802153 0.16234179 4289505439
0.15359613 0.75623137 0.16249131 4288912791
0.15446791 0.75447989 0.16235429 4288122251
0.15541133 0.75306785 0.16263053 4289965738
0.15697655 0.75149894 0.16282941 4288715673
0.15779851 0.74951863 0.1626436 4289044637
0.15874285 0.74810523 0.1629201 4288583827
0.21506044 0.66435093 0.18041542 4294901753
0.21693492 0.65983272 0.18069126 4294901753
0.21929574 0.65629911 0.18138252 4288913052
0.14878449 0.76062405 0.16283609 4290033068
0.15025817 0.75900352 0.16290224 4288189835
0.15095368 0.75716633 0.16279759 4289307547
0.15267436 0.75597233 0.16324438 4289372831
0.15330897 0.75389296 0.1627932 4289504419
0.15425329 0.75247949 0.16306971 4288781979
0.21604662 0.65940315 0.1815293 4294901753
0.21675487 0.65834308 0.18173668 4294901753
0.21769919 0.65692967 0.18201318 4291412931
0.21840744 0.6558696 0.18222056 4288648344
0.14394808 0.76435149 0.16361202 4289768623
0.14545172 0.76297879 0.16350429 4288255127
0.14633109 0.76176536 0.16347384 4289044382
0.14771317 0.76009339 0.16340725 4289243299
0.14852332 0.75812405 0.16322216 4288322197
0.14070515 0.76744962 0.16375852 4288124820
0.14164768 0.76603884 0.1640345 4288716445
0.14263792 0.76417613 0.1641147 4289242790
0.14320548 0.76256537 0.16386135 4287794831
0.13168731 0.77802092 0.16294476 4284527529
0.13262984 0.7766102 0.16322075 4287538596
0.13380799 0.77484673 0.16356571 4287729552
0.13498615 0.77308333 0.16391069 4288847511
0.13620423 0.77165031 0.16402379 4287926925
0.13711455 0.7699092 0.16385567 4288256405
0.1382938 0.76814401 0.16420093 4289308838
0.13981855 0.76702088 0.16459496 4287795343
0.14042851 0.76496267 0.16414638 4287926670
0.12950274 0.77836442 0.16413184 4287403928
0.13050517 0.77744925 0.16406001 4287405469
0.13105634 0.7758556 0.16380653 4288586402
0.13223597 0.77408993 0.16415194 4287729549
0.13341564 0.77232426 0.16449735 4288846996
0.13435936 0.77091169 0.16477367 4288321168
0.13593897 0.76933694 0.16429599 4287335304
0.13711938 0.76757014 0.16464162 4287927187
0.12661128 0.77976596 0.16511193 4287860877
0.12755238 0.77836329 0.16471273 4287334536
0.12873249 0.77660513 0.16438216 4288256152
0.12448663 0.78060508 0.16595121 4287925385
0.12526974 0.77943534 0.16573159 4288386963
0.12636767 0.77779919 0.16515391 4287993235
0.12092979 0.78124738 0.16649003 4288978327
0.12312876 0.7808817 0.16664965 4288780948
0.11909716 0.78223127 0.16705157 4288321684
0.1171102 0.78403753 0.16854085 4289045409
0.11720452 0.7827186 0.16796157 4287598218
0.11451315 0.78420871 0.16920534 4288188562
0.11560795 0.78334916 0.16859223 4288977566
0.11164659 0.78517377 0.16999464 4288781722
0.11265094 0.78425688 0.16992268 4288518546
0.10898568 0.78622466 0.17104574 4287793799
0.10999002 0.78530777 0.17097378 4289044892
0.10733223 0.78755301 0.17261937 4283584340
0.1082561 0.78675544 0.17252454 4287531404
0.10583591 0.78745162 0.17364264 4283781198
0.10301162 0.78754354 0.1740551 4282990918
0.10046434 0.7890538 0.17608862 4281284661
0.10205783 0.78842443 0.17545916 4281415479
0.098930202 0.78837502 0.17615445 4281546804
0.081546046 0.81210274 0.17383732 4281941823
0.082252935 0.81104463 0.1740443 4282139717
0.083195448 0.80963397 0.17432028 4282270788
0.096823379 0.7896263 0.17806707 4281811264
0.078950107 0.81364715 0.1745386 4281152309
0.080403827 0.81186146 0.17472069 4282401863
0.081366323 0.81061596 0.17488074 4282468167
0.082391113 0.80896503 0.17525387 4282402374
0.094316609 0.78941673 0.17846403 4281811522
0.095799662 0.78959793 0.17874157 4281877315
0.074113712 0.81737459 0.17531455 4280297766
0.075443834 0.81595236 0.17501356 4280493863
0.076358929 0.81477219 0.17505135 4280953902
0.077834211 0.81315035 0.17511724 4281940286
0.078555182 0.81124872 0.1749471 4282598731
0.07973557 0.80948198 0.17529273 4282730827
0.080785528 0.8075586 0.1758198 4282533704
0.082017653 0.80630243 0.17670827 4282204741
0.083187461 0.80496383 0.17724071 4281481532
0.083774537 0.80291462 0.17814331 4281086519
0.084717065 0.8015039 0.17841929 4281349436
0.090843439 0.79233414 0.18021314 4281810752
0.091550343 0.7912761 0.18042012 4281548350
0.092720047 0.79004729 0.17909469 4281613889
0.069692656 0.82223612 0.17511608 4282667091
0.070870794 0.82047272 0.17546104 4281284151
0.071813315 0.81906199 0.17573702 4280494634
0.072526112 0.81716806 0.17556725 4280297252
0.07323733 0.81569004 0.17558628 4280363045
0.081264094 0.80367589 0.17793658 4281284666
0.08312355 0.8021332 0.17904873 4280955704
0.084066086 0.80072248 0.17932472 4281349693
0.084772967 0.79966444 0.17953169 4281613121
0.089388207 0.79213625 0.18059921 4281548350
0.08976303 0.79095501 0.18042512 4281416764
0.06426917 0.82801276 0.17498942 4282930261
0.065211684 0.82660204 0.1752654 4282996055
0.066389829 0.82483864 0.17561036 4282996056
0.067332357 0.82342792 0.17588635 4282733142
0.068510503 0.82166451 0.17623132 4281811014
0.06898386 0.81971097 0.17580502 4280888621
0.070164271 0.81794417 0.17615065 4280296994
0.080315776 0.80274981 0.17912309 4281087545
0.081260107 0.80133635 0.17939959 4281021752
0.082543947 0.80003721 0.18005794 4281284670
0.083826445 0.79874015 0.18071593 4281613121
0.085004605 0.79697675 0.18106091 4281744707
0.086182766 0.79521328 0.18140589 4281942341
0.087125279 0.79380256 0.18168186 4281745731
0.08783216 0.79274452 0.18188883 4281679681
0.06255585 0.8276509 0.17631449 4282864469
0.06357494 0.82584745 0.17648828 4283061849
0.064513549 0.82360882 0.17638884 4282469713
0.065644704 0.82207018 0.17647451 4281482561
0.067151219 0.82069486 0.17636655 4280955191
0.08037179 0.80090678 0.18023764 4281153338
0.081316121 0.79949337 0.18051414 4281481533
0.08233007 0.79727209 0.18125029 4281547584
0.083084732 0.79567343 0.1817641 4281744962
0.084621251 0.79454637 0.18148191 4282073672
0.08532951 0.7934863 0.18168929 4282139465
0.061078183 0.82693636 0.17770855 4283062107
0.06179003 0.82523441 0.17750901 4283061850
0.062777728 0.82372272 0.17728224 4282469713
0.058657955 0.82763261 0.17882663 4283128155
0.05989603 0.82636476 0.17882378 4282996571
0.06047789 0.82486343 0.1787166 4282798419
0.056177866 0.82783318 0.18029252 4282930776
0.057475828 0.82706094 0.17994188 4283062105
0.058227271 0.82540649 0.18010907 4282337611
0.059294615 0.82429129 0.17983292 4281744192
0.050047487 0.83466792 0.17995888 4282930266
0.053346302 0.82973033 0.1809248 4282996057
0.05479005 0.82786202 0.18116486 4282930263
0.055934373 0.82607025 0.18128087 4282205768
0.056986656 0.82460487 0.18089415 4281481273
0.049160883 0.83423918 0.18079533 4282864987
0.050339028 0.83247578 0.18114029 4282799192
0.051517177 0.83071238 0.18148527 4282930520
0.052459691 0.82930166 0.18176123 4283061849
0.053392939 0.82747924 0.18185271 4282601295
0.054082714 0.82559592 0.18169117 4281678137
0.048944954 0.83152682 0.18128493 4282930520
0.050125346 0.82976007 0.18163057 4283062105
0.051305763 0.82799327 0.1819762 4282732883
0.052014001 0.82693321 0.18218358 4281745729
0.42112195 0.4964349 0.15035409 4282534223
0.42206812 0.49501878 0.15063111 4282534223
0.42343944 0.49307331 0.15051845 4282599760
0.42369732 0.49172643 0.15029901 4282665809
0.41686037 0.50046355 0.15057324 4282665809
0.41756997 0.49940142 0.15078102 4282534223
0.41849816 0.49758309 0.15064964 4282468430
0.42001024 0.495704 0.15071833 4282468431
0.42118734 0.49448431 0.1510824 4282468431
0.42240664 0.4929091 0.15105988 4282468430
0.42310289 0.49143898 0.15085985 4282731602
0.41407809 0.50286543 0.1508588 4282336845
0.41478768 0.50180334 0.15106659 4282402638
0.41571319 0.49998733 0.15093547 4282468430
0.41664004 0.49816921 0.15080471 4282468430
0.4110947 0.50445449 0.15151238 4282469202
0.41186839 0.50294548 0.15177906 4282337615
0.41308126 0.50114143 0.15123247 4282337614
0.41402918 0.49972257 0.15151003 4282403407
0.40543461 0.50992769 0.15199541 4282008392
0.40614423 0.50886559 0.15220319 4282139721
