# .PCD v0.7 - Point Cloud Data file format
VERSION 0.7
FIELDS x y z rgb
SIZE 4 4 4 4
TYPE F F F U
COUNT 1 1 1 1
WIDTH 1095
HEIGHT 1
VIEWPOINT 0 0 0 1 0 0 0
POINTS 1095
DATA ascii
0.3983272 0.55740911 0.15385209 4281613373
0.39795473 0.55620408 0.15353437 4281613373
0.39739606 0.55439645 0.15305778 4281678910
0.39693052 0.55289012 0.15266062 4281481787
0.39087829 0.53330779 0.14749762 4281218611
0.39050585 0.5321027 0.1471799 4281021488
0.38987496 0.53019369 0.14709918 4281088055
0.38939711 0.52813137 0.14701644 4281022519
0.3886275 0.52634704 0.14669737 4280890935
0.3878127 0.52456355 0.14650193 4281219131
0.38737425 0.52242655 0.14610639 4281153593
0.3869099 0.52092403 0.14571024 4281154105
0.38779366 0.5283221 0.14739232 4281088056
0.38709062 0.52671343 0.1471294 4281022264
0.38668397 0.52467918 0.14710273 4281153082
0.38604259 0.52288145 0.14669591 4281087288
0.38548464 0.52107608 0.14621994 4281153594
0.38481542 0.51914829 0.14576913 4281218873
0.38436475 0.5171473 0.14545198 4281087286
0.38384682 0.51564622 0.1452124 4280956215
0.38327581 0.51414794 0.14512983 4281087545
0.38517457 0.5248428 0.14768417 4281219130
0.38470903 0.52333647 0.14728703 4280956213
0.38415036 0.5215289 0.14681044 4281022263
0.38329735 0.51948249 0.14644364 4281218616
0.38238549 0.51727545 0.14604168 4281152568
0.38214946 0.51544356 0.14604585 4281022009
0.38197377 0.51371253 0.14579277 4280890166
0.38103485 0.5118795 0.14573787 4281087287
0.3812519 0.51714575 0.14686401 4281087545
0.38030407 0.51550609 0.1467772 4281021752
0.38002506 0.51378477 0.14662234 4280824630
0.37960202 0.51201969 0.14624749 4281153338
0.37902606 0.51036227 0.14654398 4281087545
0.37817273 0.50843155 0.14623596 4281153337
0.37752259 0.50632805 0.14568135 4281153078
0.37705821 0.50482553 0.1452852 4281350199
0.37863284 0.51366645 0.14715587 4280693300
0.37816727 0.51216012 0.14675871 4281219130
0.37719083 0.51038682 0.14693055 4281022265
0.376674 0.50857502 0.14657101 4281087800
0.37615368 0.50664145 0.14609182 4281218871
0.37549561 0.50476253 0.14556581 4281284149
0.374951 0.50276899 0.14539851 4281218358
0.37426001 0.500754 0.14541787 4281349948
0.37349734 0.50304419 0.14580627 4281153078
0.37290254 0.5013656 0.14569668 4281087802
0.3722195 0.49942353 0.14573562 4281153083
0.37162554 0.50098372 0.14623038 4281153853
0.37087825 0.49956486 0.14609812 4281087803
0.37032911 0.49770522 0.14638528 4281087290
0.36959234 0.49561599 0.14647548 4281153083
0.36931479 0.49933466 0.14720634 4281218362
0.36880851 0.49805322 0.14695485 4281087803
0.36823842 0.49603683 0.14706521 4281022011
0.36769801 0.49392805 0.14680174 4281021497
0.36721125 0.49230108 0.14666404 4281152568
0.3663587 0.49096605 0.14665665 4281284154
0.3666957 0.49585536 0.14749819 4281022011
0.36600316 0.49397138 0.14708786 4280955704
0.36559665 0.49225995 0.14745219 4280955447
0.36517429 0.49045542 0.14732611 4281021495
0.36449164 0.48891085 0.14707969 4280955958
0.36365336 0.48719504 0.14686854 4281087542
0.36407664 0.49237606 0.14779006 4280824375
0.36326766 0.49059111 0.14752097 4280955960
0.36289111 0.48878583 0.14751059 4281021494
0.36217546 0.48694253 0.14727698 4281087029
0.36156464 0.48495418 0.14682445 4280823857
0.36087987 0.48310459 0.14656211 4280692529
0.36006859 0.48132655 0.14636667 4280495663
0.36055544 0.48681051 0.14773339 4280955443
0.3600899 0.48530418 0.14733624 4280823857
0.35904893 0.48336327 0.14716999 4280758064
0.35886347 0.48148918 0.14699851 4280560942
0.35825655 0.47955045 0.14659856 4280428842
0.35796645 0.47776279 0.14655271 4280363048
0.35677657 0.47611108 0.1461025 4280363305
0.35647807 0.47394347 0.14578697 4280298025
0.35737771 0.4815236 0.14754866 4280626223
0.3570503 0.47971213 0.14723079 4280428844
0.35609528 0.47818953 0.14711557 4280494636
0.35556778 0.47619012 0.14672475 4280494634
0.35510719 0.4743368 0.14637609 4280363304
0.35464746 0.47248536 0.14602765 4280363304
0.35386559 0.47047293 0.14607807 4280231462
0.35349408 0.46927091 0.14576115 4280034341
0.35373437 0.47473031 0.14696679 4280297770
0.35309508 0.47251225 0.14673638 4280166185
0.35235015 0.47079784 0.14651796 4280034598
0.35166517 0.46882346 0.1461471 4280099877
0.35095924 0.46696264 0.14566782 4280099364
0.35056052 0.46523714 0.14533536 4280033826
0.35029539 0.46307328 0.14513221 4279968547
0.34956688 0.4611313 0.14472072 4279902755
0.34883836 0.45918933 0.14430922 4279836962
0.34846687 0.45798731 0.1439923 4279968548
0.35027727 0.46853963 0.14654377 4280165157
0.34981173 0.46703327 0.14614661 4280164644
0.34944251 0.46508014 0.14578983 4280099106
0.34918129 0.46325979 0.14551328 4280099622
0.34795046 0.46150121 0.14514855 4280099622
0.34744683 0.45962271 0.14477704 4279836705
0.34674203 0.45788419 0.14447089 4279968037
0.3463006 0.45611727 0.14435272 4280034087
0.34576154 0.4542163 0.14420418 4280033828
0.34542355 0.45782992 0.14492929 4279968292
0.34501192 0.45598006 0.14482886 4280034084
0.34425089 0.45443028 0.14469814 4279968292
0.34368622 0.45264426 0.14464407 4280099622
0.34238479 0.45250931 0.14524011 4280231719
0.34146494 0.45074791 0.14535977 4280165930
0.34143642 0.44935623 0.14513405 4280231724
0.3401227 0.45072013 0.14575909 4280034344
0.33966568 0.4490189 0.14555289 4280100394
0.33891299 0.4472405 0.14566767 4280100136
0.33826309 0.44556576 0.14570266 4280165671
0.33733195 0.44354945 0.14541228 4280297513
0.33712974 0.44681209 0.1458535 4280034085
0.33645317 0.44524738 0.14559211 4280100134
0.33617353 0.44360018 0.14588955 4280165927
0.33564094 0.44170892 0.14566925 4280166185
0.33462662 0.43977842 0.14562416 4280363306
0.33451062 0.44333273 0.14614536 4280099879
0.33389851 0.44156402 0.14600374 4280034856
0.3333765 0.43965468 0.14613059 4280100647
0.33297783 0.43776527 0.14589746 4280165927
0.33270049 0.44163835 0.14670628 4279903525
0.33205634 0.43986768 0.1465432 4279969318
0.33157745 0.43811268 0.14648648 4279903525
0.33080325 0.43716466 0.14592983 4279969318
0.33892417 0.67489249 0.25979757 4288034612
0.33855173 0.6736874 0.25947985 4288034355
0.33830833 0.67157429 0.25951326 4288165170
0.33790851 0.66961771 0.25929266 4288361776
0.33735123 0.66781467 0.25881729 4288491564
0.33647588 0.66630805 0.25782952 4288622377
0.33575839 0.66464943 0.25709692 4289278509
0.33519971 0.6628418 0.25662035 4290266686
0.3346411 0.66103423 0.25614375 4290931806
0.33870298 0.67600936 0.26099142 4287838517
0.33845976 0.67389256 0.26102284 4287968562
0.33697376 0.66908449 0.25975516 4288360236
0.33660224 0.66788244 0.25943825 4288425257
0.33604503 0.6660794 0.25896287 4288621350
0.33548775 0.66427642 0.25848749 4289146923
0.33493051 0.66247338 0.25801212 4289871927
0.33437324 0.66067034 0.25753671 4290469714
0.33336321 0.65902239 0.25681084 4291200368
0.33264357 0.6575672 0.2563456 4291467901
0.33155641 0.65604854 0.25603846 4291337337
0.33157504 0.65659881 0.25766939 4291469437
0.33092955 0.65543973 0.25719815 4290810987
0.33002636 0.6540904 0.25663725 4290545240
0.32893732 0.65256923 0.25633031 4290477646
0.32896256 0.65312833 0.2579605 4290673484
0.3283152 0.65196675 0.25748947 4291002964
0.32742405 0.65091252 0.25701958 4291665786
0.32715705 0.65143824 0.25852001 4291396444
0.32602474 0.65017533 0.2580846 4291928188
0.32506937 0.64902455 0.25825092 4290677858
0.32510182 0.6497708 0.25928652 4291665272
0.3238509 0.64861333 0.25886068 4290807903
0.32233089 0.64793849 0.25998339 4290872414
0.32114673 0.64665383 0.25989664 4291529828
0.32136288 0.64763778 0.26113641 4291070048
0.32020283 0.6465382 0.2603952 4292122995
0.31822771 0.64455724 0.26066697 4292254329
0.31851527 0.64465195 0.26185685 4292518012
0.31712294 0.64361471 0.26151136 4292451445
0.31534335 0.64284742 0.26251724 4292453494
0.31438619 0.64211756 0.26244214 4291989855
0.31341237 0.64194345 0.26334473 4292057192
0.3123588 0.64135575 0.26455632 4292981904
0.31125158 0.64006793 0.26454443 4293902751
0.31035843 0.6390754 0.26405844 4294229395
0.30990872 0.63988018 0.26550129 4294364845
0.30935729 0.639166 0.26488847 4294756255
0.30843529 0.63998455 0.26657149 4294561721
0.30785552 0.6393019 0.26613349 4294888618
0.30659965 0.64010721 0.26786628 4294161067
0.30635375 0.63943779 0.26737851 4294424237
0.30558053 0.64042664 0.26916787 4294027428
0.3053526 0.63952839 0.26820853 4294753979
0.30397299 0.64089197 0.26997879 4294488236
0.3009086 0.64105922 0.27291939 4294952644
0.30028754 0.64089537 0.27423441 4294953158
0.27861401 0.77945089 0.35991693 4280693300
0.27842781 0.77884835 0.35975805 4280693300
0.39919016 0.56045824 0.15235655 4282138182
0.39898753 0.55852467 0.15253176 4281284408
0.39682886 0.55209649 0.15097164 4281677879
0.39645547 0.55088836 0.15065311 4281612086
0.39589539 0.5490762 0.1501753 4281678652
0.39549869 0.54712504 0.14949924 4281350202
0.39477524 0.54545182 0.14921974 4281088312
0.39446607 0.54361695 0.14853391 4281350456
0.393906 0.54180479 0.1480561 4281546038
0.39334592 0.53999257 0.14757833 4281086005
0.39277297 0.53830576 0.14717399 4281349944
0.39197481 0.53639096 0.14683077 4281284150
0.39141473 0.5345788 0.14635298 4281219125
0.39820671 0.56014246 0.15305008 4281876293
0.39732495 0.55882263 0.15307328 4281482304
0.3965348 0.5567463 0.15305634 4281547838
0.39619508 0.55481505 0.15284291 4281613886
0.39538071 0.55308944 0.15169664 4281482300
0.3950367 0.55107826 0.15117687 4281415992
0.39444855 0.54927605 0.15061215 4281415737
0.3938328 0.54748523 0.14996088 4281349945
0.39329928 0.54565817 0.14956874 4281087799
0.39273816 0.54384267 0.14909004 4281284407
0.39223278 0.54200596 0.14878491 4281414708
0.39167196 0.54019147 0.14830649 4281151795
0.39111117 0.53837705 0.1478281 4281415478
0.39055037 0.53656256 0.14734972 4281349942
0.38999331 0.53464913 0.14687099 4281218870
0.38912252 0.53254229 0.14686997 4281087542
0.38835141 0.53050929 0.14669433 4281153594
0.38797802 0.52930117 0.14637582 4281153592
0.39548767 0.55732423 0.15329887 4281415996
0.39492619 0.55550748 0.15281987 4281613629
0.39427108 0.55338794 0.15226102 4281482300
0.39380318 0.55187398 0.15186185 4281613371
0.38846898 0.5346148 0.14731137 4281284152
0.38800105 0.53310084 0.14691223 4281218615
0.38705316 0.53117365 0.14709011 4281218873
0.38636854 0.52908802 0.14678289 4281087544
0.38585991 0.52709776 0.1469205 4281087544
0.38535228 0.52581304 0.14666842 4281219131
0.38518155 0.52899837 0.14704588 4281022006
0.38438755 0.52768874 0.14727886 4281087289
0.38380399 0.52557909 0.14726573 4281087801
0.38335088 0.52351034 0.14707151 4280956212
0.3827908 0.52169818 0.14659372 4281022005
0.38206065 0.51981264 0.14621203 4281087543
0.38151306 0.51839852 0.14592579 4281021494
0.38248479 0.52612978 0.1477074 4281087546
0.38182971 0.52401024 0.14714856 4281022007
0.38108388 0.52187866 0.14726245 4280890934
0.38060352 0.52004707 0.1470162 4281022265
0.38008374 0.51822579 0.14665414 4280956215
0.37958661 0.51657695 0.14651343 4281021752
0.37863642 0.51493311 0.14642641 4280759095
0.37901017 0.51990771 0.14728227 4280955959
0.37854227 0.51839375 0.14688309 4280890166
0.37781146 0.51658547 0.14684489 4280824374
0.37745652 0.5147357 0.14694689 4280824886
0.37697926 0.51290971 0.14670111 4280956472
0.37629312 0.51135731 0.14645344 4281022264
0.37535724 0.50933081 0.14616159 4281087545
0.37470382 0.50721657 0.14560416 4281153592
0.37405041 0.5051024 0.14504674 4281218613
0.37590989 0.51489681 0.14717641 4280759094
0.37518057 0.51309055 0.14713803 4280824886
0.37478712 0.51125127 0.14712369 4280956472
0.37422654 0.50943756 0.14664549 4281022009
0.37366694 0.50739741 0.14613499 4281087544
0.3729187 0.50533015 0.1456382 4281153079
0.37246823 0.50356013 0.14550598 4281153080
0.37151805 0.50191629 0.14541897 4281022265
0.37318397 0.51109707 0.14738995 4281021752
0.37271607 0.50958312 0.14699075 4281021496
0.37194252 0.50770772 0.14664821 4281283895
0.37134153 0.50597239 0.14624131 4281546039
0.37082824 0.50392556 0.14585683 4281480503
0.37036914 0.50183356 0.14614037 4281218617
0.36995423 0.50019491 0.14577329 4281218875
0.37080321 0.50757736 0.14747472 4281283637
0.37033528 0.5060634 0.14707558 4281611574
0.36953509 0.50414377 0.14673148 4281480245
0.36858818 0.50231063 0.14693676 4281087289
0.36791599 0.50037426 0.14677694 4281087803
0.36753145 0.49836498 0.14674555 4280890681
0.36692002 0.49705425 0.14656158 4281088060
0.36680803 0.49985278 0.14738101 4280956472
0.36610866 0.49849892 0.14716816 4280824886
0.36520109 0.49691683 0.14709273 4280956473
0.36491859 0.49475151 0.14696467 4280955961
0.36429429 0.4935661 0.14685418 4280824375
0.36417899 0.49636024 0.14767398 4280890681
0.36324745 0.49535021 0.14755104 4280824631
0.36273444 0.49352515 0.14743376 4280824374
0.36221409 0.49142575 0.14740109 4281021753
0.36148188 0.48947391 0.14698751 4280824373
0.36101514 0.4879638 0.14658935 4281284408
0.36120281 0.49312434 0.14802676 4280890166
0.36061442 0.49140084 0.14807178 4280890166
0.36012295 0.48958689 0.14776731 4280758580
0.35950151 0.48783451 0.14733669 4280890164
0.35910708 0.48596308 0.14707206 4280758321
0.35864034 0.48445296 0.14667392 4280823857
0.35820895 0.48941883 0.14815605 4280758580
0.357741 0.48790488 0.14775687 4280692530
0.35743776 0.48601732 0.14744994 4280758065
0.35693508 0.48428324 0.14758199 4280757551
0.35643339 0.4825919 0.14718792 4280692016
0.35582793 0.48036078 0.14680725 4280494382
0.35475397 0.48197007 0.14755088 4280757297
0.35442147 0.48063621 0.14722785 4280559918
0.35359928 0.47859654 0.1470297 4280428332
0.35304683 0.47671321 0.14679916 4280625965
0.35221469 0.47496977 0.14645523 4280298027
0.35190004 0.4734349 0.14610773 4279969320
0.35056549 0.47343412 0.14651459 4279969320
0.3497811 0.4714683 0.14620498 4280100135
0.34924126 0.46966994 0.1461868 4279968548
0.34846562 0.46785131 0.14579169 4280033828
0.34824279 0.46583378 0.14540164 4280033827
0.34768268 0.46402162 0.14492387 4280099620
0.34730932 0.4628135 0.14460532 4280362793
0.34786341 0.46711001 0.14634426 4280099619
0.34681332 0.46630967 0.14585052 4280034338
0.34603646 0.4644886 0.14545515 4279968288
0.34546039 0.46256399 0.14538057 4280165668
0.34494308 0.46051458 0.14495431 4279902753
0.34470841 0.45877975 0.14460254 4279836960
0.34393683 0.45690912 0.14426087 4280099876
0.34456208 0.46450782 0.14624687 4280100132
0.34377047 0.46250436 0.14585365 4280034338
0.34309396 0.4605943 0.14541757 4280034083
0.3430891 0.45880815 0.14542958 4279968290
0.34220052 0.45700309 0.14498487 4280099875
0.34175399 0.45496923 0.14471614 4280166182
0.34072521 0.45313001 0.14452338 4280297767
0.3407132 0.45707458 0.14550239 4280034083
0.33997911 0.45511779 0.14508773 4280165926
0.33965087 0.45317087 0.14510596 4280231719
0.33872882 0.45150161 0.14519526 4280165416
0.337984 0.44949958 0.14517631 4280099624
0.33727917 0.44788677 0.14491272 4280100134
0.33789366 0.45297208 0.14563604 4280297000
0.33741546 0.45150661 0.14572521 4280230952
0.33664915 0.44963869 0.14568456 4280099365
0.33597389 0.44785151 0.14546157 4280099878
0.33535826 0.44601142 0.14546891 4280100134
0.33465344 0.44439864 0.14520532 4279903525
0.33535489 0.44977793 0.14600919 4280099878
0.33447593 0.44800898 0.14597395 4279968548
0.33387613 0.44616291 0.14596066 4280231463
0.33351699 0.44426861 0.14602973 4280034339
0.33283871 0.4427 0.14576767 4280034597
0.33272254 0.44628099 0.14630254 4282269764
0.33228248 0.4444938 0.1460852 4280296742
0.33124679 0.44266999 0.14625368 4279969061
0.33089128 0.44078049 0.14632231 4279903525
0.33011967 0.43890986 0.14598064 4279969063
0.32965294 0.43739969 0.14558247 4279903271
0.32962227 0.44127008 0.14619672 4279903268
0.3288489 0.43911606 0.14616875 4279969065
0.32803348 0.43764561 0.14594989 4279837992
0.33854502 0.6776427 0.258751 4287840060
0.33861873 0.67612892 0.25826952 4287969590
0.33867696 0.67423797 0.25783724 4288034614
0.33827317 0.67227083 0.25761437 4288164914
0.33771309 0.67045861 0.25713658 4288296240
0.3373397 0.66925049 0.25681806 4288427055
0.33659291 0.66683429 0.256181 4288622379
0.33587384 0.66516846 0.25544599 4289344560
0.33495563 0.66359341 0.2546525 4290136640
0.33491266 0.66139776 0.25474763 4290933603
0.33378121 0.65989286 0.25396129 4291464569
0.33271694 0.65812266 0.25389969 4291599489
0.33210024 0.65730554 0.25488096 4291534206
0.33145326 0.65613991 0.25440753 4291271289
0.33025029 0.65449077 0.25445068 4291074927
0.32913443 0.6537208 0.25470743 4290743642
0.32828239 0.65246874 0.25428584 4291271272
0.32729101 0.65127009 0.25422835 4291799425
0.32663727 0.65027082 0.25560227 4291602049
0.32522017 0.64958996 0.25500068 4291338096
0.32550085 0.65014082 0.25642666 4291338876
0.32369167 0.64904654 0.25615099 4290873689
0.32293335 0.64851028 0.25761309 4290806872
0.32138836 0.64806908 0.2572329 4291068505
0.32044655 0.64753175 0.25769892 4291266143
0.31931752 0.64638889 0.25800523 4291990385
0.31847084 0.64561301 0.25918749 4292123001
0.31742495 0.64404106 0.25966746 4292977794
0.31614119 0.64322579 0.2602607 4292385394
0.31522176 0.64257973 0.25928688 4291723348
0.31422716 0.64216357 0.26083204 4291789910
0.31282091 0.64166337 0.26207122 4292382558
0.31187209 0.64087379 0.26163384 4292909421
0.31095836 0.63920033 0.26160085 4293832580
0.31102076 0.64042914 0.26285705 4293702795
0.30982119 0.6390155 0.26230046 4294031500
0.30896324 0.63798803 0.2618669 4294097034
0.30843291 0.6388368 0.26353186 4293834894
0.30795696 0.63807905 0.26270112 4294097805
0.30657041 0.63944954 0.26448035 4294428581
0.3044821 0.64055502 0.26804236 4294488233
0.30429539 0.63995099 0.26788309 4294820287
0.30266139 0.64134073 0.26986584 4294290857
0.30165768 0.64143157 0.27069798 4294687415
0.27827105 0.78108841 0.3596465 4280759092
0.27702242 0.77871758 0.35942549 4280693300
0.27617246 0.7805894 0.36012644 4280693300
0.27612463 0.77925354 0.35985288 4280627507
0.27526191 0.78079301 0.36048689 4280627507
0.27488762 0.77958184 0.36016756 4280561714
0.39990804 0.56533772 0.15024327 4294705148
0.39987722 0.56268263 0.15120327 4289964463
0.39872232 0.56519169 0.15127341 4294770683
0.39864686 0.56299633 0.15164205 4291348422
0.3979888 0.56160533 0.15213762 4282269248
0.39696273 0.56576103 0.15230855 4294770681
0.3970294 0.56339431 0.15254058 4293849325
0.39679238 0.56108946 0.15281387 4282795598
0.39572507 0.55931377 0.15275183 4281613377
0.39328581 0.55142134 0.15067095 4281415992
0.39291051 0.55020714 0.15035081 4281415992
0.39234763 0.5483858 0.1498706 4281350201
0.3917847 0.54656446 0.1493904 4281087543
0.391128 0.54443961 0.14883016 4281284148
0.39047128 0.54231471 0.14826992 4281414707
0.38990834 0.54049337 0.14778972 4281348915
0.38934547 0.53867203 0.14730951 4281480502
0.38878253 0.53685075 0.14682931 4281481015
0.38840726 0.53563648 0.14650917 4281349688
0.39556929 0.56563616 0.15333691 4294770681
0.39522576 0.5637247 0.15327026 4294704889
0.39482522 0.56167066 0.15303285 4287071625
0.39460701 0.55946279 0.15324719 4281678914
0.39408028 0.55762136 0.15288043 4281350460
0.39359048 0.55576241 0.15262772 4281548094
0.3930276 0.55394107 0.15214752 4281350971
0.39242756 0.55213678 0.15155309 4281350458
0.39179012 0.55034852 0.15084419 4281350458
0.39122674 0.54852569 0.15036355 4281350459
0.39066339 0.5467028 0.14988297 4281087798
0.39009815 0.54464674 0.14936873 4281218869
0.38941151 0.54265237 0.14881505 4281284149
0.38868365 0.54083931 0.14824036 4281152821
0.38792008 0.53918189 0.14765838 4281284150
0.3873561 0.53735709 0.14717728 4281349687
0.38715801 0.53536093 0.14689262 4281284153
0.38656557 0.53344733 0.14657116 4281350200
0.38558063 0.53152364 0.14664319 4281218870
0.38511154 0.53000587 0.14624301 4281022006
0.3937681 0.56385475 0.15384685 4294770683
0.3933017 0.56188136 0.15372683 4290230199
0.3924455 0.56009102 0.15352614 4282204233
0.39191628 0.55798292 0.15312518 4281350461
0.39185473 0.55600882 0.15320049 4281416766
0.3912909 0.55418444 0.1527195 4281417277
0.39068982 0.5523771 0.15212436 4281219642
0.38962859 0.55068403 0.15111184 4281285178
0.38906357 0.54885584 0.15062983 4281219642
0.38849854 0.54702765 0.15014784 4281153593
0.38787651 0.5452221 0.14949407 4281088056
0.38733992 0.54338241 0.14909789 4281219385
0.38667312 0.54163355 0.14853884 4281088056
0.38581228 0.53979933 0.14791262 4281022263
0.38524655 0.53796881 0.14743 4281218870
0.38510835 0.53605849 0.14725576 4281087542
0.3845433 0.53423029 0.14677373 4281153336
0.38437712 0.53216207 0.1467694 4281218872
0.38392523 0.52993977 0.14686538 4281087031
0.38294166 0.52801794 0.14693725 4281021754
0.39092728 0.55972123 0.15398152 4282007113
0.39045581 0.55819583 0.15357934 4281415741
0.38972056 0.55634719 0.1535621 4281482046
0.38915518 0.55451787 0.15307978 4281417021
0.3885898 0.55268854 0.15259747 4281351484
0.38819289 0.55087394 0.15164886 4281219898
0.38762715 0.54904342 0.15116625 4281088058
0.38715568 0.54751801 0.15076408 4280956986
0.38347837 0.53561991 0.14762706 4281022006
0.38272163 0.53418303 0.14749312 4281153336
0.38229257 0.53251445 0.14735825 4281153336
0.38206339 0.53044879 0.14729203 4281021752
0.38173324 0.52816182 0.14719702 4280955960
0.38099739 0.5263409 0.14715631 4281021752
0.38055488 0.52448934 0.14702225 4281153081
0.37991276 0.5228312 0.1466866 4281022262
0.37927067 0.52117306 0.14635095 4281022265
0.38082615 0.53209656 0.14792261 4281219131
0.38068265 0.53045243 0.14775038 4281087545
0.37975651 0.52863568 0.14750728 4281021750
0.37918168 0.52688068 0.14737035 4281021751
0.37864336 0.52496833 0.14707901 4281153080
0.37852687 0.52282733 0.14701064 4281087543
0.37798995 0.52107108 0.14678985 4281087545
0.37729123 0.51917452 0.1466628 4281021752
0.37671086 0.51750416 0.14650047 4280890167
0.37616259 0.51614958 0.14624485 4280758582
0.37735558 0.52518475 0.14748731 4281021750
0.37700909 0.5233233 0.14715904 4281021752
0.37593579 0.52161855 0.14697976 4281021752
0.37533984 0.51957339 0.14686303 4281022007
0.37505734 0.51751757 0.14700486 4280956216
0.37466648 0.5158245 0.14691055 4280759094
0.3740719 0.51399839 0.14679454 4280758837
0.37342981 0.51234025 0.14645889 4280955959
0.37375954 0.52019149 0.14743687 4281153079
0.37317324 0.51799977 0.14739537 4280955958
0.3727501 0.51598018 0.14734069 4280758580
0.37240231 0.51410329 0.14741908 4280824117
0.3720355 0.51228327 0.14724877 4280955445
0.37151206 0.51032943 0.14694406 4281086775
0.371043 0.50881171 0.14654389 4281087030
0.37110731 0.51666814 0.14773242 4280890165
0.37044966 0.51452291 0.14770953 4280890164
0.3699846 0.51241684 0.14782901 4280889907
0.36987248 0.51054311 0.14759061 4281087028
0.3695944 0.50831866 0.14742921 4281021235
0.36893767 0.50619382 0.14686897 4281218613
0.36825743 0.50447226 0.14653112 4281153079
0.36875558 0.51462293 0.14854012 4280824370
0.36830327 0.5128355 0.14867401 4280955955
0.36796188 0.5106017 0.14863212 4281087027
0.36771408 0.50855619 0.14838411 4281021235
0.36722007 0.50652057 0.14813103 4281021749
0.36686158 0.50450939 0.14764325 4281021752
0.36629865 0.50268805 0.14716305 4280890423
0.36569619 0.50094831 0.14675513 4281087801
0.36501446 0.49937177 0.14649175 4280890422
0.36666909 0.51293004 0.14931831 4280824627
0.3660869 0.51116157 0.14910775 4280955700
0.36567038 0.50899839 0.14917558 4280890165
0.36539975 0.50697225 0.14891526 4280955958
0.36493608 0.50515229 0.14845121 4281087544
0.36437207 0.50332749 0.1479701 4280955959
0.36380816 0.50150275 0.14748903 4281087545
0.36335641 0.49951726 0.14737578 4280890166
0.36273274 0.49761593 0.14701818 4280890422
0.3654784 0.51278687 0.15017852 4281152822
0.364849 0.5110876 0.14981215 4281152309
0.36401522 0.50906509 0.14963767 4281020979
0.36340836 0.50732732 0.14949459 4281087286
0.3628431 0.50549835 0.14901237 4281153079
0.36227784 0.50366944 0.14853016 4281218617
0.36171257 0.50184047 0.14804795 4281087286
0.36123827 0.50000644 0.14779566 4281021236
0.36088789 0.49793833 0.14750764 4281021237
0.36063078 0.4959414 0.14755948 4280955444
0.36004108 0.49433109 0.14744748 4280824114
0.35957813 0.49268666 0.14736901 4281087799
0.36263758 0.50865334 0.15031321 4281021236
0.3622604 0.50743306 0.14999147 4281153078
0.36169466 0.50560254 0.14950885 4281087544
0.36112893 0.50377208 0.14902623 4281218875
0.36056319 0.50194162 0.14854361 4281087030
0.35999748 0.5001111 0.14806101 4280955443
0.35917827 0.49830359 0.14778851 4280955188
0.35849726 0.4964911 0.147861 4281021236
0.35837695 0.49438256 0.14791425 4280758578
0.35798877 0.49243158 0.14785393 4280758580
0.3574332 0.4906854 0.14762688 4280692787
0.35649332 0.48895532 0.14735134 4280692530
0.3561886 0.48675248 0.14702281 4280823601
0.35734522 0.49658775 0.14835656 4281021236
0.35652602 0.49478021 0.14808407 4280889395
0.35584724 0.49297068 0.1481563 4280824118
0.3554233 0.4911412 0.14801893 4280692788
0.35508448 0.48891172 0.14780773 4280692274
0.35471368 0.48686203 0.14754985 4280823600
0.35415009 0.48503843 0.14706905 4280560172
0.35369399 0.48321939 0.14684819 4280691759
0.35251817 0.48143682 0.14652589 4280560172
0.3525176 0.47990763 0.14643653 4280428332
0.354693 0.4930644 0.14865211 4280823605
0.35362029 0.49127978 0.14858972 4280757810
0.35315326 0.48932371 0.14823976 4280757809
0.35256922 0.48741841 0.14791593 4280626735
0.35200393 0.48558944 0.1474337 4280560686
0.35154623 0.48358843 0.14744315 4280494892
0.35103831 0.48153973 0.1470535 4280428843
0.35094416 0.47970465 0.14688268 4280363050
0.35052633 0.47793457 0.14650129 4280429099
0.35028917 0.47605267 0.14623241 4280363822
0.34947407 0.47425416 0.14596127 4280100650
0.34865898 0.47245568 0.14569014 4280297513
0.35185215 0.48893088 0.14878678 4280954676
0.351475 0.48771057 0.14846504 4280823603
0.35090926 0.48588008 0.14798242 4280692017
0.34985512 0.48391458 0.14781404 4280428844
0.34932765 0.48214075 0.14746684 4280363308
0.34878865 0.48024011 0.14724679 4280231978
0.34844485 0.47817165 0.14726749 4280297513
0.34819138 0.47618547 0.14691733 4280363306
0.34772518 0.47418812 0.14651643 4280166440
0.34708083 0.47224367 0.14613552 4280165927
0.34649336 0.47035372 0.14569232 4279968548
0.34633675 0.46829715 0.14540601 4279968548
0.34526944 0.4665215 0.14534396 4279968546
0.3448942 0.4653073 0.14502382 4279902753
0.34720287 0.48039123 0.14810959 4280231722
0.34661859 0.47874165 0.14773297 4280297258
0.34611046 0.47678825 0.1472798 4280363305
0.34557334 0.47489071 0.14705986 4280363305
0.34500811 0.47306174 0.14657767 4280231719
0.34456885 0.47106978 0.14614213 4280034340
0.34428006 0.46906477 0.1461356 4279968548
0.34387505 0.46691 0.14594901 4279968290
0.34358048 0.4648912 0.1458424 4280034339
0.34286976 0.46311894 0.14550278 4279968546
0.3420676 0.46119443 0.14515781 4280100132
0.34150466 0.45937306 0.14467761 4280099619
0.34112939 0.45815885 0.14435747 4280099619
0.34503904 0.47700286 0.1480909 4280363306
0.34447327 0.4751724 0.14760828 4280363306
0.34390754 0.47334191 0.14712566 4280231720
0.34296221 0.47129488 0.14683086 4280165927
0.34226915 0.46972683 0.14658067 4280165156
0.3419635 0.46763355 0.14638291 4280164899
0.3416349 0.46555084 0.14643036 4280164900
0.34122077 0.46346042 0.14612579 4280034083
0.34066901 0.46157616 0.14576279 4280099876
0.34010535 0.45975253 0.14528199 4280231205
0.33965361 0.45798799 0.14512321 4280033826
0.33911785 0.45584452 0.14476261 4280165412
0.33830276 0.45404601 0.14449149 4280296998
0.34034181 0.46770594 0.14706831 4280229925
0.33965668 0.46612146 0.14680359 4280098852
0.33920315 0.46426648 0.14663088 4280164901
0.33853099 0.46219122 0.14631908 4280099620
0.33819854 0.46017793 0.14630711 4280296999
0.33795673 0.45819759 0.1458368 4280164898
0.33745009 0.45630097 0.1454584 4280296485
0.33688846 0.45431471 0.1453445 4280231205
0.33618709 0.45244318 0.14533804 4280165413
0.33550537 0.45086667 0.14507468 4280165414
0.33768955 0.46418256 0.14736384 4280165413
0.3368907 0.46228766 0.14703117 4280099876
0.33621034 0.46023944 0.14652827 4280165926
0.33564457 0.45840898 0.14604567 4280099620
0.33518419 0.45659769 0.14579414 4280165415
0.33488271 0.4548178 0.14588965 4280297001
0.3344886 0.45280376 0.14573216 4280231205
0.33399385 0.4507736 0.14580147 4280363048
0.33356926 0.44903585 0.1456653 4280034083
0.33261421 0.44738373 0.14557783 4280165416
0.33371726 0.45638806 0.1465333 4280165413
0.33324581 0.45486268 0.14613111 4280297256
0.33246639 0.45297313 0.14578596 4280231720
0.33218184 0.45129019 0.14606924 4280231976
0.33172485 0.44920191 0.14594071 4280034342
0.3313494 0.44713518 0.14598711 4280297002
0.33089453 0.44533768 0.14573815 4280757036
0.33025911 0.44378987 0.145605 4280099363
0.32950616 0.44236022 0.14547174 4280100134
0.33002782 0.44950885 0.14594404 4280034599
0.32945263 0.44753453 0.14614183 4280100136
0.32866234 0.4454563 0.14583404 4280166185
0.32821515 0.44373348 0.14592418 4279903270
0.32786247 0.44194964 0.14568153 4280100649
0.32765886 0.43990618 0.14567758 4280363821
0.32649186 0.43764025 0.14544566 4279903527
0.32693353 0.44539827 0.14628886 4280296998
0.32655635 0.44417793 0.14596711 4280165927
0.32578194 0.44216093 0.14600928 4281153078
0.32553241 0.44007298 0.14586501 4282205510
0.32537851 0.4378902 0.1459884 4280100648
0.32428879 0.43703598 0.1454985 4280232490
0.32419434 0.44032097 0.14641352 4280822577
0.32330886 0.43850794 0.14626472 4280231209
0.32258114 0.43727985 0.14604795 4280165929
0.32125187 0.4371312 0.14655821 4279969064
0.33684421 0.66967481 0.25195187 4288622894
0.33653194 0.66782141 0.25125912 4289147955
0.33642468 0.66592866 0.25072771 4290003518
0.33587456 0.66419572 0.25039604 4290600527
0.33526522 0.66226155 0.24998629 4291263593
0.33464006 0.66053581 0.249447 4291464312
0.33354408 0.658997 0.2491366 4292323219
0.33849618 0.67941797 0.25604117 4288301129
0.33834678 0.67706555 0.25451273 4288365377
0.3379696 0.67584521 0.25419098 4288233277
0.33740386 0.67401475 0.25370836 4288166197
0.3363373 0.66972071 0.25237215 4288622894
0.33649433 0.66778219 0.25354746 4288753710
0.33593062 0.66595834 0.2530666 4289476404
0.33552581 0.66399074 0.25284427 4290268227
0.3349629 0.6621694 0.25236407 4290934371
0.3341864 0.66015041 0.25160941 4291465595
0.33262274 0.65862352 0.2498647 4291929485
0.33136329 0.65699905 0.24983433 4291732873
0.33098611 0.65577871 0.24951258 4291667593
0.33813685 0.67928815 0.25716847 4288037956
0.33855122 0.67713487 0.25712207 4287971132
0.33254793 0.6583783 0.25216746 4291731332
0.33100772 0.65672064 0.25111136 4291534721
0.33007631 0.6550132 0.25065836 4291469179
0.3290073 0.65351456 0.25025931 4291537534
0.32833388 0.65225536 0.24980813 4291538303
0.33785316 0.67907029 0.25864765 4287971391
0.33037695 0.6557194 0.25269413 4291337334
0.32975185 0.65458882 0.25238413 4291337844
0.32844278 0.65313643 0.25153562 4291537530
0.32729432 0.65154308 0.25094575 4291604355
0.32635668 0.64999342 0.25055465 4291933321
0.32773796 0.65221363 0.25298819 4291538048
0.3268609 0.651164 0.25268865 4291669893
0.32554436 0.64964479 0.25204003 4291537533
0.32416084 0.64886963 0.25136447 4291338608
0.32440507 0.64931726 0.25374332 4291205738
0.323147 0.64896137 0.25220498 4291271013
0.32342744 0.64917117 0.25482586 4291071322
0.3216069 0.64835668 0.25356129 4291267156
0.3208133 0.64776868 0.25577357 4291068502
0.31937999 0.64678413 0.2544452 4291792741
0.31873572 0.646083 0.2565484 4292055664
0.31744331 0.64498204 0.25544134 4292714621
0.31675678 0.64447743 0.25728646 4292978052
0.31538463 0.64342719 0.25607225 4292515952
0.31419975 0.64193064 0.25565749 4291855188
0.31477714 0.64215279 0.25805202 4292051026
0.31362092 0.64133883 0.25717878 4292117589
0.31264398 0.63980365 0.2561042 4293501303
0.31145322 0.63810217 0.25587261 4293765758
0.31107607 0.63688189 0.25555086 4294029959
0.31251812 0.64118201 0.25902668 4292512605
0.31153935 0.6396507 0.25795552 4293765246
0.31067741 0.63802934 0.25705108 4293766016
0.30988833 0.63683254 0.25645623 4293899657
0.31118789 0.64060533 0.26008078 4293763448
0.31052408 0.63942057 0.25961098 4293963652
0.30933809 0.63804346 0.25856301 4294096006
0.30862102 0.63694721 0.25750688 4294294928
0.30936399 0.63889807 0.26064599 4293570943
0.30798748 0.63804352 0.25969687 4294032270
0.30727413 0.63722587 0.25870281 4294427554
0.30684209 0.63912624 0.26273677 4293899656
0.30634463 0.63839978 0.26139179 4294363299
0.30564955 0.63934207 0.26332429 4294297247
0.30546176 0.63873446 0.26316407 4294824362
0.30409113 0.64000869 0.26424405 4294624182
0.30327755 0.63946915 0.2629678 4294961366
0.30286548 0.64135832 0.26698044 4294951100
0.30268973 0.64045143 0.26529223 4294952644
0.3023611 0.64140397 0.2673986 4294951357
0.27686203 0.78537911 0.36018568 4280693043
0.27673894 0.78414208 0.35965645 4280561714
0.27535003 0.78537422 0.36102569 4280627507
0.27474689 0.78370517 0.36082497 4280627507
0.27410573 0.78197312 0.36062211 4280627508
0.27348921 0.77997833 0.36009619 4280561971
0.27293885 0.77855706 0.35980847 4280824886
0.27358282 0.78955358 0.362131 4280692786
0.27299199 0.78827423 0.36194673 4280627506
0.27261475 0.78608561 0.36181903 4280627507
0.27241299 0.78404188 0.36162704 4280561714
0.27229884 0.78207237 0.361404 4280495923
0.27187228 0.78022867 0.3610335 4280627508
0.27131099 0.77867717 0.3605583 4280890422
0.27180859 0.78971416 0.36360192 4280758832
0.27143142 0.78849381 0.36328018 4280693553
0.27086568 0.78666335 0.36279756 4280430642
0.27044106 0.78466958 0.36242566 4280496179
0.27022997 0.78243405 0.36221999 4280561715
0.26966512 0.78060645 0.36173812 4280627507
0.26919028 0.77942622 0.3611334 4280890423
0.26972207 0.78802127 0.36438009 4280627758
0.26932639 0.78698182 0.36416432 4280562224
0.26865289 0.78480268 0.36358979 4280496432
0.26821345 0.78314 0.36309311 4280496433
0.2678363 0.78191966 0.36277136 4280496433
0.26823682 0.7865876 0.36481845 4280758832
0.26776537 0.78506219 0.36441627 4280627502
0.39981654 0.56691957 0.14929192 4294770686
0.39854607 0.56703448 0.15034521 4294770684
0.39695644 0.56780708 0.15198109 4294770681
0.39517775 0.56796807 0.15345569 4294770682
0.39459205 0.56631434 0.15307812 4294770682
0.39372432 0.56495559 0.15307061 4294770683
0.39371824 0.56747133 0.15434767 4294770681
0.39308608 0.56627095 0.15423578 4294770681
0.39251888 0.5644359 0.15375195 4294770681
0.39193314 0.56278217 0.15337439 4294638839
0.39097095 0.56111759 0.15328626 4284177506
0.38633919 0.54613125 0.14933503 4281022522
0.38567752 0.54399037 0.14877057 4281088058
0.38501582 0.54184949 0.14820611 4281154105
0.38444868 0.54001445 0.14772229 4281088312
0.38388154 0.53817934 0.14723846 4281087543
0.3834089 0.53665018 0.14683528 4281021749
0.39049223 0.56210411 0.15416014 4294769916
0.39011413 0.56088072 0.15383758 4284703851
0.38933277 0.55898643 0.15349159 4281547331
0.38859805 0.55749667 0.15331364 4281415740
0.38765037 0.55544454 0.15301809 4281416764
0.3870832 0.55360949 0.15253426 4281417021
0.38689765 0.55156022 0.15164323 4281154104
0.38645712 0.54989338 0.15114529 4281088313
0.38606218 0.54813254 0.15056413 4280891448
0.3855769 0.54620028 0.14996698 4281022777
0.38368642 0.54008341 0.14835425 4281088312
0.38311926 0.53824836 0.14787042 4281087544
0.38229799 0.53643626 0.14759725 4281087288
0.38171226 0.53478253 0.1472197 4281087545
0.38075003 0.53311795 0.14713156 4281021752
0.38688809 0.5555135 0.15365006 4281547835
0.38632095 0.55367845 0.15316623 4281416507
0.38575381 0.55184335 0.15268241 4281285177
0.38027132 0.53410447 0.14800544 4281218360
0.37989321 0.53288114 0.14768291 4281152823
0.37911186 0.53098685 0.1473369 4281087287
0.37837714 0.52949703 0.14715894 4281153079
0.37742946 0.5274449 0.14686339 4281021236
0.37657267 0.52720803 0.14741473 4280955443
0.37610003 0.52567881 0.14701155 4281021749
0.37531868 0.52378458 0.14666556 4281022007
0.37420341 0.52207768 0.14667585 4281087799
0.37416786 0.52365291 0.14750035 4281153592
0.37352094 0.52198225 0.14716218 4281153078
0.37244558 0.52019316 0.14709967 4281153080
0.37178564 0.51864946 0.14683588 4280955959
0.37141448 0.51981485 0.147716 4281087545
0.37086207 0.51845008 0.14745846 4281021752
0.36970693 0.51682544 0.14754161 4280956213
0.36932883 0.51560205 0.14721905 4280758834
0.36877033 0.51675296 0.14823858 4281021493
0.36780548 0.51523685 0.14822757 4280824113
0.366983 0.51392794 0.14820983 4280824627
0.36633 0.51477301 0.14914872 4280758834
0.36578935 0.51378441 0.14907221 4280824627
0.3646667 0.51319432 0.14965317 4281153079
0.36370444 0.51152974 0.14956504 4281086773
0.36286461 0.50989902 0.14939812 4281020980
0.36153516 0.50813293 0.14954627 4280956214
0.36096802 0.50629789 0.14906245 4281087800
0.36040086 0.50446284 0.14857863 4281153338
0.35983372 0.50262779 0.1480948 4281087545
0.35875836 0.5008387 0.14803228 4280824373
0.358073 0.49910417 0.14769189 4281020982
0.35755903 0.49780327 0.14743657 4280955189
0.35698578 0.49848393 0.14822982 4280889396
0.35622713 0.49704346 0.14809555 4280955190
0.35541415 0.495572 0.14798816 4280823603
0.35490015 0.4942711 0.14773285 4280757810
0.35399595 0.49523321 0.14892766 4280757811
0.35344061 0.49377435 0.14862487 4280692018
0.3527458 0.49220237 0.14837408 4280889396
0.35179812 0.49015021 0.14807853 4280823090
0.35103583 0.49021921 0.1487105 4280823346
0.35025448 0.48832494 0.14836451 4280823346
0.34964743 0.48657209 0.14795351 4280691760
0.3490617 0.48491836 0.14757594 4280625966
0.3479104 0.48264211 0.14732653 4280428589
0.34780982 0.48485199 0.14852296 4280428586
0.34689403 0.48273405 0.14816917 4280428587
0.34610468 0.48085624 0.14783774 4280297257
0.34515703 0.47880411 0.14754219 4280231207
0.34533998 0.48193151 0.14898053 4280296999
0.34496188 0.48070812 0.14865798 4280297256
0.34414062 0.47889608 0.14838482 4280296744
0.34357348 0.477061 0.14790098 4280494123
0.34300631 0.47522596 0.14741717 4280362793
0.34243917 0.47339091 0.14693335 4280362792
0.34185344 0.47173715 0.14655578 4280231464
0.34079665 0.46976674 0.14638701 4280296485
0.34041858 0.46854341 0.14606446 4280427046
0.34312424 0.47898802 0.14922744 4280427816
0.34255707 0.47715297 0.14874361 4280559402
0.34198993 0.4753179 0.14825979 4280362793
0.3414228 0.47348288 0.14777596 4280297000
0.34085563 0.4716478 0.14729214 4280231463
0.34003437 0.46983573 0.14701898 4280165156
0.33912846 0.46803135 0.14681602 4280099108
0.33831209 0.46637601 0.14661829 4279968035
0.3377597 0.46501121 0.14636074 4280033828
0.33810225 0.46780977 0.14750779 4279902754
0.33738852 0.46617663 0.14724088 4280034084
0.33672857 0.46463293 0.1469771 4280164901
0.33565322 0.46284384 0.14691457 4280099621
0.33491176 0.46086735 0.14649576 4280034340
0.33434463 0.4590323 0.14601193 4280099875
0.33387199 0.45750308 0.14560875 4280033826
0.33497071 0.46274841 0.1474009 4280034341
0.3341625 0.46080941 0.14705335 4279968548
0.33358231 0.45910129 0.14664391 4280034084
0.33300215 0.45739314 0.14623447 4280099620
0.33201963 0.45531273 0.14595193 4280231207
0.33135968 0.45376903 0.14568813 4280165927
0.33055145 0.45183003 0.14534058 4280100134
0.33017334 0.45060664 0.14501803 4280232490
0.3309885 0.45493445 0.14656827 4280231720
0.33061039 0.45371106 0.14624572 4280231463
0.32978913 0.45189899 0.14597255 4280099877
0.3289679 0.45008692 0.14569938 4280100647
0.32806689 0.44843927 0.14557186 4280165927
0.3273254 0.44646278 0.14515305 4280362793
0.32776245 0.4495672 0.14638074 4280100134
0.32738435 0.44834384 0.14605819 4280165927
0.32632759 0.44637343 0.1458894 4280362792
0.32548776 0.44474268 0.14572251 4280231207
0.32510966 0.44351932 0.14539996 4280297257
0.32415834 0.44297662 0.14587066 4280363306
0.32296482 0.44128802 0.14595154 4280494125
0.32235625 0.43968132 0.14561561 4280428332
0.32111892 0.43922734 0.14635521 4280034600
0.32038423 0.43773755 0.14617725 4280034857
0.33619767 0.66447955 0.24846359 4290602325
0.33563054 0.66264451 0.24797976 4290801755
0.3351579 0.66111529 0.24757656 4291199081
0.33656362 0.67073435 0.25134027 4288558130
0.33666423 0.6685245 0.25014383 4289017910
0.33411205 0.6602667 0.24796662 4291398775
0.33361927 0.65917951 0.24780273 4291663232
0.33816445 0.67844939 0.25398815 4288432197
0.33605543 0.67078036 0.25176159 4288492335
0.33164221 0.65734625 0.24842419 4291732876
0.33031276 0.65558016 0.24857233 4291602313
0.32980457 0.65562612 0.24899365 4291338624
0.32863471 0.65353119 0.24885049 4291406464
0.32782328 0.65203267 0.24872819 4291538563
0.32727578 0.65082461 0.24854608 4292460952
0.32705116 0.65178812 0.2492093 4291670919
0.32623973 0.6502896 0.24908699 4292065164
0.32518408 0.64912748 0.24932618 4291867528
0.32389882 0.64877218 0.25015318 4291471219
0.32235953 0.64843988 0.25119084 4291336804
0.32029727 0.64768332 0.25242352 4291135057
0.31925142 0.64683473 0.25281358 4291990887
0.31820554 0.6459862 0.25320363 4292583543
0.31715968 0.64513761 0.25359368 4292780927
0.3160193 0.64398324 0.25390312 4292516989
0.31471935 0.64315766 0.25450382 4292513638
0.3142266 0.64207041 0.25433993 4291921497
0.31310636 0.64047408 0.25441006 4292975215
0.31168237 0.63840216 0.25447756 4294094465
0.31098717 0.63699788 0.25431192 4294095750
0.30959067 0.63670504 0.25525767 4294096266
0.30755788 0.63688898 0.25694293 4294427028
0.30615732 0.63827324 0.25874007 4294624926
0.30635041 0.63720781 0.25804996 4294757548
0.30539504 0.63834226 0.25937203 4294757803
0.30520597 0.63773054 0.25921077 4294893505
0.30405951 0.63909185 0.26079726 4294960835
0.400114 0.56942898 0.1475936 4294770686
0.39909995 0.5697577 0.14855412 4294770684
0.39953467 0.56805283 0.1487187 4294770686
0.39778242 0.570014 0.14988664 4294770682
0.39826101 0.5681681 0.1497746 4294770683
0.39634281 0.57166594 0.15167885 4294770681
0.39668834 0.56984466 0.15146369 4294770681
0.39506599 0.57178152 0.15273738 4294770682
0.39542335 0.57000077 0.15292417 4294770682
0.39353383 0.57192016 0.15400761 4294770681
0.393608 0.57028395 0.15399209 4294770681
0.39330781 0.56848121 0.15381275 4294770681
0.392257 0.57203567 0.15506616 4294770681
0.39167562 0.57041186 0.15497378 4294770681
0.39140472 0.56854177 0.15476425 4294770681
0.39089108 0.56666851 0.15444709 4294770681
0.39032218 0.56482768 0.15396179 4294770681
0.38979757 0.56318909 0.15358196 4294705145
0.38901427 0.56112528 0.15345551 4286480261
0.38863528 0.55989885 0.15313219 4282073420
0.38493958 0.54794127 0.14997949 4281088826
0.38446575 0.54640824 0.14957526 4281154362
0.38440669 0.54452246 0.14866793 4281022264
0.38383812 0.54268283 0.1481829 4281219385
0.38314155 0.54110694 0.14793146 4281088312
0.38219151 0.53904969 0.14763515 4281087799
0.38181245 0.53782326 0.14731182 4281152568
0.39050519 0.57061434 0.15571949 4294770681
0.3894245 0.56881636 0.15565665 4294770681
0.38885453 0.56697214 0.1551704 4294770681
0.38828453 0.56512791 0.15468417 4294770681
0.38786542 0.56317723 0.15429941 4294705144
0.38756964 0.56132853 0.15400626 4289243560
0.38700038 0.55948663 0.15352064 4281876295
0.38670644 0.5576424 0.15322839 4281416508
0.38578022 0.55574471 0.1532675 4281547578
0.38521168 0.55390507 0.15278248 4281416507
0.38464308 0.55206543 0.15229745 4281285178
0.38458401 0.55017966 0.15139011 4281219385
0.38358477 0.54843503 0.15060684 4281285180
0.38301545 0.54659313 0.15012121 4281219644
0.3824462 0.54475123 0.14963557 4281087801
0.38187692 0.54290932 0.14914995 4281087802
0.3813076 0.54106736 0.1486643 4281088057
0.38073835 0.53922546 0.14817865 4281087288
0.38044703 0.53726161 0.1479606 4281086774
0.37969014 0.53551364 0.14746433 4281152566
0.37852079 0.53374583 0.14714438 4281087029
0.37848362 0.53213602 0.14704297 4281218615
0.38783306 0.56706458 0.15601726 4294770681
0.38745308 0.56583506 0.1556931 4294770681
0.38593313 0.5609172 0.15439647 4286019700
0.38555315 0.55968773 0.15407231 4282138952
0.38476968 0.55762219 0.15394522 4281482044
0.38424456 0.55598181 0.15356493 4281547578
0.38376233 0.55409926 0.1533324 4281482043
0.38313451 0.55228275 0.1526776 4281219385
0.38253567 0.55045265 0.15210712 4281219386
0.38162252 0.54866868 0.15157829 4281285178
0.38156331 0.54677826 0.15066865 4281285436
0.38099331 0.54493403 0.15018243 4281153851
0.38042334 0.54308981 0.14969619 4281022265
0.37947091 0.54102749 0.14939916 4281087801
0.37877259 0.53944761 0.14914711 4281153338
0.37847126 0.53762114 0.14870808 4280955703
0.37763268 0.53575921 0.14817461 4281021237
0.37706268 0.53391498 0.14768839 4281021235
0.37693101 0.53199625 0.14750478 4281087030
0.3768014 0.53008199 0.14732186 4281152823
0.37621418 0.52842414 0.14694336 4281152822
0.37515476 0.52644885 0.14677411 4281021492
0.374681 0.52491581 0.14636995 4281022006
0.38231102 0.55429375 0.15388384 4281481787
0.38183603 0.55275691 0.15347865 4281219385
0.37594622 0.53370005 0.1484542 4281087027
0.37547126 0.5321632 0.14804901 4281152566
0.37499267 0.53012836 0.14790744 4281152823
0.37416887 0.52847439 0.14754534 4281152822
0.37366173 0.52661651 0.14723086 4280955956
0.37319943 0.52488142 0.14696614 4281022006
0.37274399 0.52288479 0.14686 4281153335
0.3719207 0.52106822 0.14658612 4281087544
0.37203917 0.52615446 0.14769845 4280824627
0.37131608 0.52471292 0.14770664 4281022006
0.37096059 0.52307713 0.14744267 4281153080
0.37045479 0.52122164 0.14712831 4281087031
0.3700785 0.51934379 0.14715703 4281087288
0.36944473 0.51814044 0.14704484 4281087799
0.369937 0.52444887 0.14848246 4281022006
0.3691746 0.52300125 0.14834751 4281284151
0.36847627 0.52142143 0.14809546 4281218101
0.36835527 0.5195182 0.14791135 4281284408
0.36811781 0.51772016 0.14787169 4281087541
0.36725304 0.51613247 0.14774607 4280824625
0.3671045 0.52122957 0.14907296 4281218356
0.36637411 0.51971585 0.14887945 4281284408
0.36628881 0.51780927 0.14877975 4281087542
0.36609936 0.51600051 0.14858299 4280890420
0.36452734 0.51798719 0.14945179 4280955957
0.36409172 0.51586765 0.14926806 4280955956
0.36340046 0.51390344 0.1492262 4281021492
0.36321911 0.51240015 0.14901817 4280955443
0.36199161 0.51357597 0.14966278 4280890165
0.36148366 0.51231754 0.14937861 4280824628
0.36082363 0.51041752 0.14920825 4280890165
0.36014163 0.50850487 0.1491169 4280890678
0.35979551 0.50640631 0.14866851 4280956470
0.35922694 0.50456673 0.14818348 4280824886
0.3586584 0.50272703 0.14769845 4280890679
0.35884711 0.50849354 0.14955543 4280955959
0.35815609 0.50695848 0.14923756 4280890166
0.35752901 0.50519252 0.14880449 4280889652
0.3569594 0.50334948 0.14831854 4280824116
0.35638726 0.5013501 0.1479021 4281021238
0.35609424 0.49938557 0.14786504 4281020982
0.35551909 0.49765307 0.14759125 4281020984
0.3566713 0.50700736 0.15005234 4280824627
0.35619631 0.50547051 0.14964715 4281021236
0.35562631 0.50362629 0.14916091 4280823859
0.35481405 0.50167763 0.14881161 4280955444
0.35437244 0.49971274 0.14879487 4280955445
0.35378549 0.49772978 0.14846206 4280955189
0.35359687 0.49609351 0.14830816 4280889396
0.35295418 0.50007653 0.14945868 4280889650
0.35226849 0.49793249 0.14925322 4280889650
0.35183638 0.49595925 0.14907229 4280823602
0.35111746 0.49418542 0.14875939 4280692017
0.3507041 0.49226624 0.14838985 4280889395
0.34983853 0.49028757 0.14831564 4280823089
0.34945953 0.48906115 0.14799231 4280888883
0.35009205 0.49591199 0.14959435 4280823857
0.34971207 0.49468252 0.14927019 4280757807
0.34917343 0.49250042 0.14919618 4280889137
0.34850383 0.49061993 0.14890778 4280889137
0.34788027 0.48879963 0.14857122 4280757550
0.34736454 0.48687488 0.14818576 4280691756
0.34660447 0.48490694 0.14812765 4280494377
0.34694493 0.49082536 0.14948691 4281086515
0.34608752 0.48907036 0.14927095 4280625963
0.34554017 0.48725632 0.14903085 4280625964
0.34517783 0.48525426 0.14878973 4280560171
0.34501702 0.48315951 0.14848737 4280362791
0.34393898 0.48136598 0.14842467 4280297000
0.34355992 0.48013955 0.14810133 4280362793
0.34417781 0.48696819 0.14970365 4280757297
0.34394264 0.48542359 0.14944848 4280494379
0.34305748 0.48368514 0.14934148 4280363049
0.34253326 0.48177737 0.14905018 4280297257
0.34178981 0.47997683 0.14865975 4280297002
0.34152821 0.47780195 0.14851056 4280493609
0.34095967 0.47596231 0.14802553 4280362536
0.34039107 0.47412264 0.14754049 4280297000
0.33982253 0.47228304 0.14705546 4280231207
0.33917397 0.47060823 0.14671642 4280231207
0.33852538 0.46893343 0.1463774 4280099621
0.34112567 0.48218894 0.14967728 4280297260
0.34033489 0.47995508 0.14939477 4280231210
0.33979726 0.47837782 0.14913218 4280296744
0.33922762 0.47653478 0.14864625 4280297257
0.33865798 0.47469169 0.14816034 4280231719
0.33808836 0.47284859 0.14767437 4280362791
0.33751872 0.47100556 0.14718844 4280296742
0.33698428 0.46917525 0.1469093 4280034083
0.33609092 0.46730131 0.14654735 4280164900
